# .PCD v0.7 - Point Cloud Data file format
VERSION 0.7
FIELDS x y z rgb
SIZE 4 4 4 4
TYPE F F F F
COUNT 1 1 1 1
WIDTH 942
HEIGHT 1
VIEWPOINT 0 0 0 1 0 0 0
POINTS 942
DATA ascii
-0.070741534 0.003028319 0.34006006 2.3509886e-38
-0.070539646 0.003028319 0.34004658 2.3509886e-38
-0.070337757 0.003028319 0.33999276 2.3509886e-38
-0.070135869 0.003028319 0.33997929 2.3509886e-38
-0.069907062 0.003028319 0.33987162 2.3509886e-38
-0.0697321 0.003028319 0.33992547 2.3509886e-38
-0.069530211 0.003028319 0.339912 2.3509886e-38
-0.069341779 0.003028319 0.33996585 2.3509886e-38
-0.065788545 0.0030148597 0.33887562 2.3509886e-38
-0.065600127 0.0030148597 0.33894295 2.3509886e-38
-0.065411694 0.0030148597 0.33899677 2.3509886e-38
-0.065223262 0.0030148597 0.33901024 2.3509886e-38
-0.065021373 0.0030148597 0.33896986 2.3509886e-38
-0.064402252 0.0030148597 0.33886218 2.3509886e-38
-0.064213827 0.0030148597 0.33887562 2.3509886e-38
-0.064011939 0.0030148597 0.3388218 2.3509886e-38
-0.063796587 0.0030148597 0.3387545 2.3509886e-38
-0.063594706 0.0030148597 0.33870068 2.3509886e-38
-0.063379355 0.0030148597 0.33864683 2.3509886e-38
-0.063190922 0.0030148597 0.33861992 2.3509886e-38
-0.062989034 0.0030148597 0.33861992 2.3509886e-38
-0.06196614 0.0030148597 0.3383911 2.3509886e-38
-0.061777711 0.0030148597 0.33841801 2.3509886e-38
-0.061575819 0.0030148597 0.33836418 2.3509886e-38
-0.061360478 0.0030148597 0.3383238 2.3509886e-38
-0.061158586 0.0030148597 0.33824307 2.3509886e-38
-0.060970157 0.0030148597 0.33826998 2.3509886e-38
-0.06075481 0.0030148597 0.33820269 2.3509886e-38
-0.060566381 0.0030148597 0.33821616 2.3509886e-38
-0.060377952 0.0030148597 0.33829689 2.3509886e-38
-0.060149144 0.0030148597 0.33810848 2.3509886e-38
-0.05994726 0.0030148597 0.33808157 2.3509886e-38
-0.059745371 0.0030148597 0.33804116 2.3509886e-38
-0.059556942 0.0030148597 0.33804116 2.3509886e-38
-0.059341595 0.0030148597 0.33797386 2.3509886e-38
-0.05913971 0.0030148597 0.33790657 2.3509886e-38
-0.058937818 0.0030148597 0.33783928 2.3509886e-38
-0.058722474 0.0030148597 0.33778545 2.3509886e-38
-0.058534045 0.0030148597 0.33781236 2.3509886e-38
-0.058318697 0.0030148597 0.33771816 2.3509886e-38
-0.057309255 0.0030148597 0.33746243 2.3509886e-38
-0.057093911 0.0030148597 0.33736822 2.3509886e-38
-0.056892019 0.0030014005 0.33735475 2.3509886e-38
-0.056676671 0.0030014005 0.33719322 2.3509886e-38
-0.056501705 0.0030014005 0.33732784 2.3509886e-38
-0.055303834 0.0030014005 0.33720672 2.3509886e-38
-0.05510195 0.0030014005 0.3371394 2.3509886e-38
-0.054900061 0.0030014005 0.33708555 2.3509886e-38
-0.054698173 0.0030014005 0.33703172 2.3509886e-38
-0.054496285 0.0030014005 0.33705863 2.3509886e-38
-0.054294396 0.0030014005 0.33699134 2.3509886e-38
-0.054105967 0.0030014005 0.33699134 2.3509886e-38
-0.053904079 0.0030014005 0.33700481 2.3509886e-38
-0.053702194 0.0030014005 0.33688369 2.3509886e-38
-0.053500302 0.0030014005 0.33689713 2.3509886e-38
-0.053298414 0.0030014005 0.33685675 2.3509886e-38
-0.053096529 0.0030014005 0.33680293 2.3509886e-38
-0.052881181 0.0030014005 0.33668178 2.3509886e-38
-0.052692752 0.0030014005 0.33670869 2.3509886e-38
-0.052490868 0.0030014005 0.33662796 2.3509886e-38
-0.05227552 0.0030014005 0.33653373 2.3509886e-38
-0.052073631 0.0030014005 0.33652028 2.3509886e-38
-0.051858284 0.0030014005 0.3363857 2.3509886e-38
-0.051669851 0.0030014005 0.33637223 2.3509886e-38
-0.051467966 0.0030014005 0.33634531 2.3509886e-38
-0.051279537 0.0030014005 0.3363857 2.3509886e-38
-0.05106419 0.0030014005 0.33627799 2.3509886e-38
-0.050862305 0.0030014005 0.3362107 2.3509886e-38
-0.050660413 0.0030014005 0.33617035 2.3509886e-38
-0.050458524 0.0030014005 0.33612996 2.3509886e-38
-0.050270099 0.0030014005 0.33611649 2.3509886e-38
-0.050081667 0.0030014005 0.33617035 2.3509886e-38
-0.049879782 0.0030014005 0.33610305 2.3509886e-38
-0.049677894 0.0030014005 0.33608958 2.3509886e-38
-0.049476005 0.0030014005 0.33607614 2.3509886e-38
-0.049274117 0.0030014005 0.33602229 2.3509886e-38
-0.049085688 0.0030014005 0.33600885 2.3509886e-38
-0.048883799 0.0030014005 0.33595499 2.3509886e-38
-0.048681915 0.0030014005 0.33591464 2.3509886e-38
-0.048480026 0.0030014005 0.33591464 2.3509886e-38
-0.048291594 0.0030014005 0.33588767 2.3509886e-38
-0.048089709 0.0030014005 0.33586076 2.3509886e-38
-0.047887821 0.0030014005 0.33580694 2.3509886e-38
-0.047685932 0.0030014005 0.33579347 2.3509886e-38
-0.047497503 0.0030014005 0.33578002 2.3509886e-38
-0.047295615 0.0030014005 0.33575311 2.3509886e-38
-0.047093727 0.0029879415 0.33569926 2.3509886e-38
-0.046891842 0.0029879415 0.33564544 2.3509886e-38
-0.04668995 0.0029879415 0.33560506 2.3509886e-38
-0.046501521 0.0029879415 0.33559158 2.3509886e-38
-0.073890984 0.0032167479 0.33915827 2.1665973e-38
-0.073796771 0.0032167479 0.33965626 2.2403538e-38
-0.07367564 0.0032302071 0.33999276 2.2772321e-38
-0.073514126 0.0032302071 0.34015426 2.2034756e-38
-0.073325701 0.0032302071 0.34015426 1.9361082e-38
-0.073110357 0.0032302071 0.34008697 1.9268887e-38
-0.072921924 0.0032302071 0.34012735 1.9914256e-38
-0.07270658 0.0032302071 0.34006006 2.0559625e-38
-0.072504684 0.0032302071 0.34003311 2.129719e-38
-0.072302796 0.0032302071 0.34003311 2.194256e-38
-0.072100908 0.0032302071 0.33999276 2.2403538e-38
-0.071899027 0.0032302071 0.33996585 2.2772321e-38
-0.071697138 0.0032302071 0.33993891 2.341769e-38
-0.07149525 0.0032302071 0.339912 2.3509886e-38
-0.071293361 0.0032302071 0.33985817 2.341769e-38
-0.071091473 0.0032302071 0.33985817 2.341769e-38
-0.070929967 0.0032302071 0.3400062 2.3509886e-38
-0.070728078 0.0032302071 0.33999276 2.3509886e-38
-0.070512727 0.0032302071 0.33995238 2.3509886e-38
-0.070310839 0.0032302071 0.339912 2.3509886e-38
-0.07010895 0.0032302071 0.33988509 2.3509886e-38
-0.069907062 0.0032302071 0.33981779 2.3509886e-38
-0.069705173 0.0032302071 0.3398447 2.3509886e-38
-0.069503292 0.0032302071 0.33977738 2.3509886e-38
-0.069301404 0.0032302071 0.33979085 2.3509886e-38
-0.069086052 0.0032167479 0.33966973 2.3509886e-38
-0.065775089 0.0032167479 0.3388218 2.3509886e-38
-0.065586664 0.0032167479 0.33887562 2.3509886e-38
-0.065398231 0.0032167479 0.33894295 2.3509886e-38
-0.065196343 0.0032167479 0.33888909 2.3509886e-38
-0.064994454 0.0032167479 0.33887562 2.3509886e-38
-0.064792566 0.0032167479 0.33879489 2.3509886e-38
-0.064590678 0.0032167479 0.33876795 2.3509886e-38
-0.064388797 0.0032167479 0.3387545 2.3509886e-38
-0.064200364 0.0032167479 0.33879489 2.3509886e-38
-0.06398502 0.0032167479 0.33870068 2.3509886e-38
-0.063783132 0.0032167479 0.33867374 2.3509886e-38
-0.063581243 0.0032167479 0.33863339 2.3509886e-38
-0.063379355 0.0032167479 0.33859301 2.3509886e-38
-0.063177466 0.0032167479 0.33855262 2.3509886e-38
-0.062975578 0.0032167479 0.33856609 2.3509886e-38
-0.062154565 0.0032167479 0.33837765 2.3509886e-38
-0.061952677 0.0032167479 0.3383238 2.3509886e-38
-0.061750792 0.0032167479 0.3383238 2.3509886e-38
-0.061548904 0.0032167479 0.33826998 2.3509886e-38
-0.061360478 0.0032167479 0.33825651 2.3509886e-38
-0.061158586 0.0032167479 0.33825651 2.3509886e-38
-0.060956698 0.0032167479 0.33820269 2.3509886e-38
-0.06074135 0.0032032887 0.33813539 2.3509886e-38
-0.060552925 0.0032032887 0.33813539 2.3509886e-38
-0.060337577 0.0032032887 0.33808157 2.3509886e-38
-0.060149144 0.0032032887 0.33808157 2.3509886e-38
-0.05994726 0.0032032887 0.3380681 2.3509886e-38
-0.059745371 0.0032032887 0.33804116 2.3509886e-38
-0.059543483 0.0032032887 0.33796039 2.3509886e-38
-0.059341595 0.0032032887 0.33796039 2.3509886e-38
-0.05913971 0.0032032887 0.33787966 2.3509886e-38
-0.058924362 0.0032032887 0.33782583 2.3509886e-38
-0.058709014 0.0032032887 0.33769125 2.3509886e-38
-0.058507126 0.0032032887 0.33767778 2.3509886e-38
-0.058305237 0.0032032887 0.33762392 2.3509886e-38
-0.05808989 0.0032032887 0.33748934 2.3509886e-38
-0.057901461 0.0032032887 0.33751625 2.3509886e-38
-0.057686113 0.0032032887 0.33740857 2.3509886e-38
-0.057497688 0.0032032887 0.33747587 2.3509886e-38
-0.057295799 0.0032032887 0.33738166 2.3509886e-38
-0.05712083 0.0032032887 0.33751625 2.3509886e-38
-0.056878563 0.0032032887 0.33724707 2.3509886e-38
-0.056690134 0.0032032887 0.33727401 2.3509886e-38
-0.056488246 0.0032032887 0.33722016 2.3509886e-38
-0.055492267 0.0032032887 0.33709902 2.3509886e-38
-0.055290379 0.0032032887 0.33712593 2.3509886e-38
-0.055088487 0.0032032887 0.33705863 2.3509886e-38
-0.054886602 0.0032032887 0.33699134 2.3509886e-38
-0.054684713 0.0032032887 0.33696443 2.3509886e-38
-0.054496285 0.0032032887 0.3369779 2.3509886e-38
-0.054294396 0.0032032887 0.3369779 2.3509886e-38
-0.054105967 0.0032032887 0.3369779 2.3509886e-38
-0.053904079 0.0032032887 0.33696443 2.3509886e-38
-0.053688735 0.0032032887 0.33684331 2.3509886e-38
-0.053486846 0.0032032887 0.33682984 2.3509886e-38
-0.053298414 0.0032032887 0.3368164 2.3509886e-38
-0.053083066 0.0032032887 0.33669522 2.3509886e-38
-0.052867722 0.0031898294 0.33660102 2.3509886e-38
-0.052679293 0.0031898294 0.33658758 2.3509886e-38
-0.052463945 0.0031898294 0.3364799 2.3509886e-38
-0.05227552 0.0031898294 0.33650681 2.3509886e-38
-0.052060172 0.0031898294 0.33641261 2.3509886e-38
-0.051858284 0.0031898294 0.3363857 2.3509886e-38
-0.051669851 0.0031898294 0.33635879 2.3509886e-38
-0.051467966 0.0031898294 0.33633187 2.3509886e-38
-0.051266078 0.0031898294 0.33633187 2.3509886e-38
-0.05106419 0.0031898294 0.33622417 2.3509886e-38
-0.050862305 0.0031898294 0.33617035 2.3509886e-38
-0.050646957 0.0031898294 0.33610305 2.3509886e-38
-0.050458524 0.0031898294 0.33608958 2.3509886e-38
-0.050256636 0.0031898294 0.3360492 2.3509886e-38
-0.050068211 0.0031898294 0.3360492 2.3509886e-38
-0.049866319 0.0031898294 0.33606267 2.3509886e-38
-0.049664434 0.0031898294 0.33602229 2.3509886e-38
-0.049476005 0.0031898294 0.33603576 2.3509886e-38
-0.049274117 0.0031898294 0.33599538 2.3509886e-38
-0.049072228 0.0031898294 0.33594155 2.3509886e-38
-0.04887034 0.0031898294 0.33591464 2.3509886e-38
-0.048668452 0.0031898294 0.33586076 2.3509886e-38
-0.048480026 0.0031898294 0.33587423 2.3509886e-38
-0.048278134 0.0031898294 0.33586076 2.3509886e-38
-0.048076246 0.0031898294 0.33580694 2.3509886e-38
-0.047874361 0.0031898294 0.33575311 2.3509886e-38
-0.047685932 0.0031898294 0.33575311 2.3509886e-38
-0.047484044 0.0031898294 0.33573964 2.3509886e-38
-0.047295615 0.0031898294 0.33571273 2.3509886e-38
-0.047093727 0.0031898294 0.33568582 2.3509886e-38
-0.046891842 0.0031898294 0.33559158 2.3509886e-38
-0.04668995 0.0031898294 0.33557814 2.3509886e-38
-0.046488062 0.0031898294 0.33555123 2.3509886e-38
-0.073890984 0.0034186358 0.33913136 2.1758169e-38
-0.073769853 0.0034186358 0.33950824 2.1573777e-38
-0.073648721 0.0034186358 0.33983126 2.194256e-38
-0.07350067 0.0034186358 0.3400735 2.0836212e-38
-0.073285319 0.0034186358 0.34001967 1.9453278e-38
-0.073083431 0.0034186358 0.33995238 1.9361082e-38
-0.07288155 0.0034186358 0.33993891 1.9914256e-38
-0.072693117 0.0034186358 0.33996585 2.0744017e-38
-0.072491229 0.0034186358 0.33997929 2.129719e-38
-0.072302796 0.0034186358 0.33997929 2.1758169e-38
-0.072087452 0.0034186358 0.33989856 2.2034756e-38
-0.071885563 0.0034186358 0.33988509 2.2495734e-38
-0.071670212 0.0034186358 0.33983126 2.3233299e-38
-0.071468331 0.0034186358 0.33979085 2.341769e-38
-0.071279906 0.0034186358 0.33980432 2.341769e-38
-0.071078017 0.0034186358 0.33981779 2.3509886e-38
-0.07090304 0.0034186358 0.33992547 2.3509886e-38
-0.070714615 0.0034186358 0.33992547 2.3509886e-38
-0.070512727 0.0034186358 0.33988509 2.3509886e-38
-0.070297383 0.0034186358 0.3398447 2.3509886e-38
-0.070095494 0.0034186358 0.33977738 2.3509886e-38
-0.069893606 0.0034186358 0.33977738 2.3509886e-38
-0.069691718 0.0034186358 0.33977738 2.3509886e-38
-0.069489829 0.0034186358 0.33975047 2.3509886e-38
-0.069287941 0.0034186358 0.33968318 2.3509886e-38
-0.069032215 0.0034186358 0.33941403 2.3509886e-38
-0.065950058 0.0034051766 0.3387545 2.3509886e-38
-0.065802015 0.0034186358 0.33895642 2.3509886e-38
-0.065573201 0.0034051766 0.33880833 2.3509886e-38
-0.065384775 0.0034051766 0.33883524 2.3509886e-38
-0.065169431 0.0034051766 0.33876795 2.3509886e-38
-0.064967543 0.0034051766 0.33870068 2.3509886e-38
-0.064765655 0.0034051766 0.33868721 2.3509886e-38
-0.064563759 0.0034051766 0.3386603 2.3509886e-38
-0.064375333 0.0034051766 0.33871412 2.3509886e-38
-0.064200364 0.0034051766 0.33878142 2.3509886e-38
-0.06398502 0.0034051766 0.33870068 2.3509886e-38
-0.063769668 0.0034051766 0.33860645 2.3509886e-38
-0.06356778 0.0034051766 0.33856609 2.3509886e-38
-0.063365892 0.0034051766 0.33853918 2.3509886e-38
-0.063164011 0.0034051766 0.3384853 2.3509886e-38
-0.062948659 0.0034051766 0.33843148 2.3509886e-38
-0.062746771 0.0034051766 0.33840457 2.3509886e-38
-0.062544882 0.0034051766 0.33835071 2.3509886e-38
-0.062342998 0.0034051766 0.3383238 2.3509886e-38
-0.062141109 0.0034051766 0.33831036 2.3509886e-38
-0.061939221 0.0034051766 0.33826998 2.3509886e-38
-0.061750792 0.0034051766 0.33829689 2.3509886e-38
-0.061548904 0.0034051766 0.33828342 2.3509886e-38
-0.061347015 0.0034051766 0.33824307 2.3509886e-38
-0.061145131 0.0034051766 0.33817577 2.3509886e-38
-0.060943238 0.0034051766 0.33812192 2.3509886e-38
-0.06074135 0.0034051766 0.33812192 2.3509886e-38
-0.060539462 0.0034051766 0.33809501 2.3509886e-38
-0.060337577 0.0034051766 0.33804116 2.3509886e-38
-0.060135689 0.0034051766 0.33804116 2.3509886e-38
-0.0599338 0.0034051766 0.33797386 2.3509886e-38
-0.059718452 0.0034051766 0.3378931 2.3509886e-38
-0.059543483 0.0034051766 0.33797386 2.3509886e-38
-0.059314676 0.0034051766 0.33781236 2.3509886e-38
-0.059112787 0.0034051766 0.33778545 2.3509886e-38
-0.058910899 0.0034051766 0.33771816 2.3509886e-38
-0.058695555 0.0034051766 0.33763739 2.3509886e-38
-0.058507126 0.0034051766 0.33763739 2.3509886e-38
-0.058305237 0.0034051766 0.33761045 2.3509886e-38
-0.05807643 0.0034051766 0.33744895 2.3509886e-38
-0.057888005 0.0034051766 0.33743551 2.3509886e-38
-0.057686113 0.0034051766 0.33742204 2.3509886e-38
-0.057484224 0.0033917173 0.33738166 2.3509886e-38
-0.05728234 0.0033917173 0.33734131 2.3509886e-38
-0.057080451 0.0033917173 0.33732784 2.3509886e-38
-0.056865104 0.0033917173 0.33720672 2.3509886e-38
-0.056663215 0.0033917173 0.33712593 2.3509886e-38
-0.056474786 0.0033917173 0.33715284 2.3509886e-38
-0.055680692 0.0033917173 0.3371394 2.3509886e-38
-0.055478804 0.0033917173 0.3370721 2.3509886e-38
-0.055276919 0.0033917173 0.33701825 2.3509886e-38
-0.055075031 0.0033917173 0.33700481 2.3509886e-38
-0.054873142 0.0033917173 0.33692405 2.3509886e-38
-0.054671254 0.0033917173 0.33688369 2.3509886e-38
-0.054469366 0.0033917173 0.33688369 2.3509886e-38
-0.054280937 0.0033917173 0.33685675 2.3509886e-38
-0.054079052 0.0033917173 0.33687022 2.3509886e-38
-0.05387716 0.0033917173 0.3368164 2.3509886e-38
-0.053675272 0.0033917173 0.33680293 2.3509886e-38
-0.053486846 0.0033917173 0.33676255 2.3509886e-38
-0.053271499 0.0033917173 0.33669522 2.3509886e-38
-0.05306961 0.0033917173 0.3366414 2.3509886e-38
-0.052854262 0.0033917173 0.33653373 2.3509886e-38
-0.052652374 0.0033917173 0.33646646 2.3509886e-38
-0.052450489 0.0033917173 0.33639917 2.3509886e-38
-0.052262057 0.0033917173 0.33641261 2.3509886e-38
-0.052060172 0.0033917173 0.33635879 2.3509886e-38
-0.051858284 0.0033917173 0.3363049 2.3509886e-38
-0.051656395 0.0033917173 0.33627799 2.3509886e-38
-0.051454503 0.0033917173 0.33627799 2.3509886e-38
-0.051252618 0.0033917173 0.3362107 2.3509886e-38
-0.05105073 0.0033917173 0.33615687 2.3509886e-38
-0.050848842 0.0033917173 0.33612996 2.3509886e-38
-0.050646957 0.0033917173 0.3360492 2.3509886e-38
-0.050445069 0.0033917173 0.33603576 2.3509886e-38
-0.050256636 0.0033917173 0.3360492 2.3509886e-38
-0.050054751 0.0033917173 0.33603576 2.3509886e-38
-0.049866319 0.0033917173 0.33602229 2.3509886e-38
-0.049664434 0.0033917173 0.33598191 2.3509886e-38
-0.049462546 0.0033917173 0.33598191 2.3509886e-38
-0.049274117 0.0033782581 0.33595499 2.3509886e-38
-0.049072228 0.0033782581 0.33591464 2.3509886e-38
-0.04887034 0.0033782581 0.33588767 2.3509886e-38
-0.048668452 0.0033782581 0.33584732 2.3509886e-38
-0.048480026 0.0033782581 0.33582038 2.3509886e-38
-0.048278134 0.0033782581 0.33580694 2.3509886e-38
-0.048076246 0.0033782581 0.33578002 2.3509886e-38
-0.047874361 0.0033782581 0.33572617 2.3509886e-38
-0.047685932 0.0033782581 0.33571273 2.3509886e-38
-0.047484044 0.0033782581 0.33572617 2.3509886e-38
-0.047282156 0.0033782581 0.33567235 2.3509886e-38
-0.047093727 0.0033782581 0.33564544 2.3509886e-38
-0.046891842 0.0033782581 0.33557814 2.3509886e-38
-0.04668995 0.0033782581 0.33552432 2.3509886e-38
-0.046488062 0.0033782581 0.33551085 2.3509886e-38
-0.073877528 0.0036070645 0.33910444 2.1020604e-38
-0.073756397 0.0036070645 0.33944094 2.129719e-38
-0.073621802 0.0036205237 0.33972356 2.2034756e-38
-0.073487207 0.0036205237 0.33999276 2.1020604e-38
-0.073271863 0.0036205237 0.33993891 1.9637669e-38
-0.073056512 0.0036205237 0.33983126 1.9545474e-38
-0.072854623 0.0036205237 0.3398447 1.982206e-38
-0.072666205 0.0036205237 0.33987162 2.046743e-38
-0.072477773 0.0036205237 0.339912 2.129719e-38
-0.072275884 0.0036205237 0.33987162 2.1758169e-38
-0.072073996 0.0036205237 0.3398447 2.2126951e-38
-0.071872108 0.0036205237 0.33981779 2.2587929e-38
-0.0716433 0.0036205237 0.33965626 2.3325494e-38
-0.071454868 0.0036205237 0.33972356 2.3509886e-38
-0.071252987 0.0036205237 0.33969665 2.341769e-38
-0.071051098 0.0036205237 0.33966973 2.3509886e-38
-0.070889585 0.0036205237 0.33985817 2.3509886e-38
-0.07070116 0.0036205237 0.33985817 2.3509886e-38
-0.070485815 0.0036205237 0.33980432 2.3509886e-38
-0.070283927 0.0036205237 0.33975047 2.3509886e-38
-0.070082031 0.0036205237 0.33973703 2.3509886e-38
-0.069866687 0.0036205237 0.33962935 2.3509886e-38
-0.069678254 0.0036205237 0.33971009 2.3509886e-38
-0.069476366 0.0036205237 0.33966973 2.3509886e-38
-0.069261022 0.0036205237 0.33954859 2.3509886e-38
-0.069018759 0.0036070645 0.33936015 2.3509886e-38
-0.066178866 0.0036070645 0.33886218 2.3509886e-38
-0.065950058 0.0036070645 0.33872759 2.3509886e-38
-0.06574817 0.0036070645 0.33872759 2.3509886e-38
-0.065559745 0.0036070645 0.33874103 2.3509886e-38
-0.065357849 0.0036070645 0.33872759 2.3509886e-38
-0.065169431 0.0036070645 0.33874103 2.3509886e-38
-0.064967543 0.0036070645 0.33868721 2.3509886e-38
-0.064765655 0.0036070645 0.33867374 2.3509886e-38
-0.064550303 0.0036070645 0.33857954 2.3509886e-38
-0.06436187 0.0036070645 0.33861992 2.3509886e-38
-0.064173453 0.0036070645 0.3386603 2.3509886e-38
-0.063971557 0.0036070645 0.33861992 2.3509886e-38
-0.063756213 0.0036070645 0.33855262 2.3509886e-38
-0.063554324 0.0036070645 0.3384853 2.3509886e-38
-0.063352436 0.0036070645 0.33844492 2.3509886e-38
-0.063150547 0.0036070645 0.33844492 2.3509886e-38
-0.062948659 0.0036070645 0.3383911 2.3509886e-38
-0.062733315 0.0036070645 0.3383238 2.3509886e-38
-0.062544882 0.0036070645 0.33831036 2.3509886e-38
-0.062342998 0.0036070645 0.33831036 2.3509886e-38
-0.062154565 0.0036070645 0.3383238 2.3509886e-38
-0.061939221 0.0036070645 0.33824307 2.3509886e-38
-0.061737329 0.0036070645 0.33821616 2.3509886e-38
-0.061535444 0.0036070645 0.33817577 2.3509886e-38
-0.061347015 0.0036070645 0.33818921 2.3509886e-38
-0.061131667 0.0035936055 0.33808157 2.3509886e-38
-0.060916319 0.0035936055 0.33802769 2.3509886e-38
-0.060714435 0.0035936055 0.33798733 2.3509886e-38
-0.060526002 0.0035936055 0.33798733 2.3509886e-38
-0.060324114 0.0035936055 0.33793348 2.3509886e-38
-0.060122229 0.0035936055 0.33790657 2.3509886e-38
-0.0599338 0.0035936055 0.33796039 2.3509886e-38
-0.059718452 0.0035936055 0.3378931 2.3509886e-38
-0.059530023 0.0035936055 0.33787966 2.3509886e-38
-0.05930122 0.0035936055 0.33774507 2.3509886e-38
-0.059112787 0.0035936055 0.33774507 2.3509886e-38
-0.058897439 0.0035936055 0.33763739 2.3509886e-38
-0.058695555 0.0035936055 0.33758354 2.3509886e-38
-0.058507126 0.0035936055 0.33762392 2.3509886e-38
-0.058305237 0.0035936055 0.33757007 2.3509886e-38
-0.058062971 0.0035936055 0.33735475 2.3509886e-38
-0.057888005 0.0035936055 0.33742204 2.3509886e-38
-0.057686113 0.0035936055 0.33742204 2.3509886e-38
-0.057484224 0.0035936055 0.33738166 2.3509886e-38
-0.05728234 0.0035936055 0.33731437 2.3509886e-38
-0.057080451 0.0035936055 0.33728746 2.3509886e-38
-0.056865104 0.0035936055 0.33720672 2.3509886e-38
-0.056649756 0.0035936055 0.33709902 2.3509886e-38
-0.056474786 0.0035936055 0.33715284 2.3509886e-38
-0.055855662 0.0035936055 0.33701825 2.3509886e-38
-0.055667236 0.0035936055 0.33700481 2.3509886e-38
-0.055465344 0.0035936055 0.33700481 2.3509886e-38
-0.055276919 0.0035936055 0.33700481 2.3509886e-38
-0.055075031 0.0035936055 0.3369779 2.3509886e-38
-0.054859683 0.0035936055 0.33689713 2.3509886e-38
-0.054657795 0.0035936055 0.33678949 2.3509886e-38
-0.054469366 0.0035936055 0.33682984 2.3509886e-38
-0.054267477 0.0035936055 0.33682984 2.3509886e-38
-0.054065589 0.0035936055 0.33680293 2.3509886e-38
-0.05387716 0.0035936055 0.33677602 2.3509886e-38
-0.053675272 0.0035936055 0.33674908 2.3509886e-38
-0.053473387 0.0035801462 0.33669522 2.3509886e-38
-0.053258039 0.0035801462 0.33657411 2.3509886e-38
-0.053056151 0.0035801462 0.33656067 2.3509886e-38
-0.052840803 0.0035801462 0.33643952 2.3509886e-38
-0.052652374 0.0035801462 0.33642608 2.3509886e-38
-0.05243703 0.0035801462 0.33634531 2.3509886e-38
-0.052248597 0.0035801462 0.33633187 2.3509886e-38
-0.052046709 0.0035801462 0.33631837 2.3509886e-38
-0.051844824 0.0035801462 0.33625108 2.3509886e-38
-0.051642936 0.0035801462 0.33622417 2.3509886e-38
-0.051441047 0.0035801462 0.3362107 2.3509886e-38
-0.051252618 0.0035801462 0.33619726 2.3509886e-38
-0.05105073 0.0035801462 0.33612996 2.3509886e-38
-0.050848842 0.0035801462 0.33607614 2.3509886e-38
-0.050633494 0.0035801462 0.33600885 2.3509886e-38
-0.050445069 0.0035801462 0.33600885 2.3509886e-38
-0.050256636 0.0035801462 0.33602229 2.3509886e-38
-0.050054751 0.0035801462 0.33598191 2.3509886e-38
-0.049852863 0.0035801462 0.33595499 2.3509886e-38
-0.049664434 0.0035801462 0.33595499 2.3509886e-38
-0.049462546 0.0035801462 0.33595499 2.3509886e-38
-0.049260657 0.0035801462 0.33591464 2.3509886e-38
-0.049058769 0.0035801462 0.33587423 2.3509886e-38
-0.04887034 0.0035801462 0.33584732 2.3509886e-38
-0.048668452 0.0035801462 0.33579347 2.3509886e-38
-0.048466567 0.0035801462 0.33576655 2.3509886e-38
-0.048278134 0.0035801462 0.33576655 2.3509886e-38
-0.048076246 0.0035801462 0.33572617 2.3509886e-38
-0.047874361 0.0035801462 0.33569926 2.3509886e-38
-0.047672473 0.0035801462 0.33564544 2.3509886e-38
-0.047484044 0.0035801462 0.33565888 2.3509886e-38
-0.047282156 0.0035801462 0.33564544 2.3509886e-38
-0.047080267 0.0035801462 0.33559158 2.3509886e-38
-0.046878379 0.0035801462 0.33553776 2.3509886e-38
-0.046676494 0.0035801462 0.33548394 2.3509886e-38
-0.046488062 0.0035801462 0.33547047 2.3509886e-38
-0.073850609 0.0038089524 0.33895642 2.0559625e-38
-0.073742941 0.0038089524 0.33938709 2.129719e-38
-0.073608339 0.0038089524 0.33965626 2.2126951e-38
-0.073460296 0.0038089524 0.33988509 2.1020604e-38
-0.0732584 0.0038089524 0.33987162 1.9453278e-38
-0.073043056 0.0038089524 0.33980432 1.9361082e-38
-0.072841167 0.0038089524 0.33975047 1.9637669e-38
-0.072666205 0.0038089524 0.33987162 2.0006452e-38
-0.072423927 0.0038089524 0.33965626 2.1204995e-38
-0.072262421 0.0038089524 0.33981779 2.1758169e-38
-0.072047077 0.0038089524 0.33976394 2.2219147e-38
-0.071831733 0.0038089524 0.33961588 2.2772321e-38
-0.071656756 0.0038089524 0.33973703 2.341769e-38
-0.071441412 0.0038089524 0.33965626 2.3509886e-38
-0.071239531 0.0038089524 0.33964282 2.341769e-38
-0.071051098 0.0038089524 0.33966973 2.3509886e-38
-0.070862666 0.0038089524 0.33973703 2.3509886e-38
-0.070687696 0.0038089524 0.33983126 2.3509886e-38
-0.070472345 0.0038089524 0.33973703 2.3509886e-38
-0.070270464 0.0038089524 0.33969665 2.3509886e-38
-0.06963788 0.0038089524 0.33950824 2.3509886e-38
-0.069449455 0.0038089524 0.33953515 2.3509886e-38
-0.069261022 0.0038089524 0.33954859 2.3509886e-38
-0.069005296 0.0038089524 0.33926594 2.3509886e-38
-0.068211205 0.0038089524 0.3392525 2.3509886e-38
-0.068009317 0.0038089524 0.33922556 2.3509886e-38
-0.067834347 0.0038089524 0.33930632 2.3509886e-38
-0.067188308 0.0038089524 0.33902371 2.3509886e-38
-0.0669595 0.0038089524 0.33887562 2.3509886e-38
-0.066757612 0.0038089524 0.3388218 2.3509886e-38
-0.066555724 0.0038089524 0.33883524 2.3509886e-38
-0.066367298 0.0038089524 0.3388218 2.3509886e-38
-0.06616541 0.0038089524 0.33884871 2.3509886e-38
-0.065936603 0.0037954934 0.33864683 2.3509886e-38
-0.06574817 0.0037954934 0.33867374 2.3509886e-38
-0.065546282 0.0037954934 0.33868721 2.3509886e-38
-0.065357849 0.0037954934 0.33867374 2.3509886e-38
-0.065155968 0.0037954934 0.33864683 2.3509886e-38
-0.064967543 0.0037954934 0.33868721 2.3509886e-38
-0.064738736 0.0037954934 0.33852571 2.3509886e-38
-0.064536847 0.0037954934 0.33853918 2.3509886e-38
-0.064348415 0.0037954934 0.33856609 2.3509886e-38
-0.064159982 0.0037954934 0.33861992 2.3509886e-38
-0.063958101 0.0037954934 0.33855262 2.3509886e-38
-0.063742749 0.0037954934 0.33845839 2.3509886e-38
-0.063540868 0.0037954934 0.33845839 2.3509886e-38
-0.06333898 0.0037954934 0.33841801 2.3509886e-38
-0.063137084 0.0037954934 0.33835071 2.3509886e-38
-0.062935196 0.0037954934 0.3383238 2.3509886e-38
-0.062733315 0.0037954934 0.3383238 2.3509886e-38
-0.062531427 0.0037954934 0.33824307 2.3509886e-38
-0.062329534 0.0037954934 0.33825651 2.3509886e-38
-0.06212765 0.0037954934 0.33821616 2.3509886e-38
-0.061925761 0.0037954934 0.33820269 2.3509886e-38
-0.061723873 0.0037954934 0.33813539 2.3509886e-38
-0.061521985 0.0037954934 0.33813539 2.3509886e-38
-0.061320096 0.0037954934 0.3380681 2.3509886e-38
-0.061118208 0.0037954934 0.3380546 2.3509886e-38
-0.060916319 0.0037954934 0.33802769 2.3509886e-38
-0.060714435 0.0037954934 0.33796039 2.3509886e-38
-0.060512546 0.0037954934 0.33790657 2.3509886e-38
-0.060310658 0.0037954934 0.33790657 2.3509886e-38
-0.06010877 0.0037954934 0.3378931 2.3509886e-38
-0.059920341 0.0037954934 0.33787966 2.3509886e-38
-0.059704993 0.0037954934 0.33777198 2.3509886e-38
-0.059516568 0.0037954934 0.33781236 2.3509886e-38
-0.05930122 0.0037954934 0.33774507 2.3509886e-38
-0.059112787 0.0037954934 0.3377316 2.3509886e-38
-0.058897439 0.0037954934 0.33762392 2.3509886e-38
-0.058682095 0.0037954934 0.33757007 2.3509886e-38
-0.058493666 0.0037954934 0.33755663 2.3509886e-38
-0.058278318 0.0037820342 0.33742204 2.3509886e-38
-0.05808989 0.0037954934 0.33746243 2.3509886e-38
-0.057861082 0.0037820342 0.33730093 2.3509886e-38
-0.057686113 0.0037820342 0.33740857 2.3509886e-38
-0.057484224 0.0037820342 0.33738166 2.3509886e-38
-0.057268877 0.0037820342 0.33727401 2.3509886e-38
-0.057080451 0.0037820342 0.33728746 2.3509886e-38
-0.056851644 0.0037820342 0.33709902 2.3509886e-38
-0.056663215 0.0037820342 0.33711249 2.3509886e-38
-0.056447867 0.0037820342 0.33704519 2.3509886e-38
-0.056259438 0.0037820342 0.33708555 2.3509886e-38
-0.056044094 0.0037820342 0.33696443 2.3509886e-38
-0.055855662 0.0037820342 0.33699134 2.3509886e-38
-0.055653777 0.0037820342 0.33695099 2.3509886e-38
-0.055465344 0.0037820342 0.33696443 2.3509886e-38
-0.055263456 0.0037820342 0.33695099 2.3509886e-38
-0.055061571 0.0037820342 0.33692405 2.3509886e-38
-0.054859683 0.0037820342 0.33685675 2.3509886e-38
-0.054657795 0.0037820342 0.33678949 2.3509886e-38
-0.05445591 0.0037820342 0.33680293 2.3509886e-38
-0.054267477 0.0037820342 0.33677602 2.3509886e-38
-0.054065589 0.0037820342 0.33676255 2.3509886e-38
-0.053863704 0.0037820342 0.33670869 2.3509886e-38
-0.053661816 0.0037820342 0.3366414 2.3509886e-38
-0.053459924 0.0037820342 0.33662796 2.3509886e-38
-0.053258039 0.0037820342 0.33657411 2.3509886e-38
-0.053042691 0.0037820342 0.33649337 2.3509886e-38
-0.052840803 0.0037820342 0.3363857 2.3509886e-38
-0.052638914 0.0037820342 0.33631837 2.3509886e-38
-0.05243703 0.0037820342 0.33629146 2.3509886e-38
-0.052235141 0.0037820342 0.3363049 2.3509886e-38
-0.052033253 0.0037820342 0.33623764 2.3509886e-38
-0.051831361 0.0037820342 0.3362107 2.3509886e-38
-0.051642936 0.0037820342 0.33618379 2.3509886e-38
-0.051441047 0.0037820342 0.33617035 2.3509886e-38
-0.051239163 0.0037685749 0.33612996 2.3509886e-38
-0.051037271 0.0037685749 0.33608958 2.3509886e-38
-0.050835382 0.0037685749 0.33603576 2.3509886e-38
-0.050633494 0.0037685749 0.33595499 2.3509886e-38
-0.050431609 0.0037685749 0.33596846 2.3509886e-38
-0.050243177 0.0037685749 0.33596846 2.3509886e-38
-0.050041292 0.0037685749 0.33595499 2.3509886e-38
-0.049852863 0.0037685749 0.33594155 2.3509886e-38
-0.049650975 0.0037685749 0.33588767 2.3509886e-38
-0.049462546 0.0037685749 0.33591464 2.3509886e-38
-0.049260657 0.0037685749 0.33586076 2.3509886e-38
-0.049058769 0.0037685749 0.33583385 2.3509886e-38
-0.048856884 0.0037685749 0.33579347 2.3509886e-38
-0.048654992 0.0037685749 0.33575311 2.3509886e-38
-0.048466567 0.0037685749 0.33572617 2.3509886e-38
-0.048264679 0.0037685749 0.33571273 2.3509886e-38
-0.048076246 0.0037685749 0.33572617 2.3509886e-38
-0.047860898 0.0037685749 0.33564544 2.3509886e-38
-0.047672473 0.0037685749 0.33564544 2.3509886e-38
-0.047470585 0.0037685749 0.33563197 2.3509886e-38
-0.047282156 0.0037685749 0.33561853 2.3509886e-38
-0.047080267 0.0037685749 0.33557814 2.3509886e-38
-0.046878379 0.0037685749 0.33551085 2.3509886e-38
-0.046676494 0.0037685749 0.33545703 2.3509886e-38
-0.046474606 0.0037685749 0.33545703 2.3509886e-38
-0.07382369 0.0039973813 0.33884871 2.0283039e-38
-0.073742941 0.0039973813 0.33936015 2.1112799e-38
-0.073594883 0.0040108408 0.33960244 2.2034756e-38
-0.073487207 0.0040108408 0.3400062 2.0651821e-38
-0.073285319 0.0040108408 0.34001967 1.89923e-38
-0.073002681 0.0040108408 0.33957553 1.9176691e-38
-0.072841167 0.0040108408 0.33977738 1.9637669e-38
-0.07255853 0.0039973813 0.33937365 2.0190843e-38
-0.072423927 0.0040108408 0.33961588 2.1112799e-38
-0.072181664 0.0040108408 0.33945438 2.1758169e-38
-0.072006702 0.0040108408 0.33950824 2.2311342e-38
-0.071804814 0.0040108408 0.33950824 2.2864516e-38
-0.071616381 0.0040108408 0.33952168 2.3509886e-38
-0.071414493 0.0040108408 0.33954859 2.3509886e-38
-0.07122606 0.0040108408 0.33953515 2.341769e-38
-0.071037643 0.0040108408 0.33962935 2.3509886e-38
-0.07084921 0.0040108408 0.33964282 2.3509886e-38
-0.070674233 0.0040108408 0.33973703 2.3509886e-38
-0.070472345 0.0040108408 0.33971009 2.3509886e-38
-0.070257001 0.0040108408 0.33960244 2.3509886e-38
-0.069853231 0.0040108408 0.33958897 2.3509886e-38
-0.069624424 0.0040108408 0.33945438 2.3509886e-38
-0.069435991 0.0040108408 0.33948129 2.3509886e-38
-0.069234103 0.0040108408 0.33941403 2.3509886e-38
-0.069059134 0.0040108408 0.33953515 2.3509886e-38
-0.06881687 0.0040108408 0.33933324 2.3509886e-38
-0.068614975 0.0039973813 0.33930632 2.3509886e-38
-0.068413094 0.0039973813 0.33927941 2.3509886e-38
-0.06819775 0.0039973813 0.33918521 2.3509886e-38
-0.067995861 0.0039973813 0.33913136 2.3509886e-38
-0.067820884 0.0039973813 0.33927941 2.3509886e-38
-0.067592084 0.0039973813 0.339091 2.3509886e-38
-0.067376733 0.0039973813 0.33898333 2.3509886e-38
-0.067161389 0.0039973813 0.33888909 2.3509886e-38
-0.066999882 0.0039973813 0.33905062 2.3509886e-38
-0.066730693 0.0039973813 0.33870068 2.3509886e-38
-0.06654226 0.0039973813 0.33874103 2.3509886e-38
-0.066353843 0.0039973813 0.33876795 2.3509886e-38
-0.066151947 0.0039973813 0.33878142 2.3509886e-38
-0.065923147 0.0039973813 0.33860645 2.3509886e-38
-0.065734714 0.0039973813 0.3386603 2.3509886e-38
-0.065532826 0.0039973813 0.33860645 2.3509886e-38
-0.065330938 0.0039973813 0.33859301 2.3509886e-38
-0.065142512 0.0039973813 0.33856609 2.3509886e-38
-0.064940624 0.0039973813 0.33853918 2.3509886e-38
-0.064711817 0.0039973813 0.33841801 2.3509886e-38
-0.064523384 0.0039973813 0.33840457 2.3509886e-38
-0.064321496 0.0039973813 0.33841801 2.3509886e-38
-0.06413307 0.0039973813 0.33847186 2.3509886e-38
-0.063931182 0.0039973813 0.33845839 2.3509886e-38
-0.063729294 0.0039973813 0.33840457 2.3509886e-38
-0.063527405 0.0039973813 0.33836418 2.3509886e-38
-0.063325517 0.0039973813 0.3383238 2.3509886e-38
-0.063123628 0.0039973813 0.33828342 2.3509886e-38
-0.06292174 0.0039973813 0.33825651 2.3509886e-38
-0.062719852 0.0039973813 0.33821616 2.3509886e-38
-0.062517963 0.0039973813 0.33817577 2.3509886e-38
-0.062316079 0.0039973813 0.33813539 2.3509886e-38
-0.06212765 0.0039973813 0.3381623 2.3509886e-38
-0.061912302 0.0039973813 0.33809501 2.3509886e-38
-0.061723873 0.0039973813 0.33809501 2.3509886e-38
-0.061521985 0.0039973813 0.33808157 2.3509886e-38
-0.061306641 0.0039839218 0.33802769 2.3509886e-38
-0.061104752 0.0039839218 0.33797386 2.3509886e-38
-0.06090286 0.0039839218 0.33793348 2.3509886e-38
-0.060714435 0.0039839218 0.33793348 2.3509886e-38
-0.060499087 0.0039839218 0.33785275 2.3509886e-38
-0.060310658 0.0039839218 0.33787966 2.3509886e-38
-0.06009531 0.0039839218 0.33781236 2.3509886e-38
-0.059906881 0.0039839218 0.33782583 2.3509886e-38
-0.059704993 0.0039839218 0.33778545 2.3509886e-38
-0.059503105 0.0039839218 0.33777198 2.3509886e-38
-0.05930122 0.0039839218 0.3377316 2.3509886e-38
-0.059099331 0.0039839218 0.33766434 2.3509886e-38
-0.058883984 0.0039839218 0.33759701 2.3509886e-38
-0.058682095 0.0039839218 0.33750281 2.3509886e-38
-0.058480207 0.0039839218 0.33748934 2.3509886e-38
-0.058291778 0.0039839218 0.33750281 2.3509886e-38
-0.05807643 0.0039839218 0.33739513 2.3509886e-38
-0.057874542 0.0039839218 0.33736822 2.3509886e-38
-0.057686113 0.0039839218 0.33738166 2.3509886e-38
-0.057470769 0.0039839218 0.33730093 2.3509886e-38
-0.05728234 0.0039839218 0.33730093 2.3509886e-38
-0.057066992 0.0039839218 0.33723363 2.3509886e-38
-0.056851644 0.0039839218 0.33712593 2.3509886e-38
-0.056636296 0.0039839218 0.33701825 2.3509886e-38
-0.056447867 0.0039839218 0.33704519 2.3509886e-38
-0.056245983 0.0039839218 0.33699134 2.3509886e-38
-0.05605755 0.0039839218 0.33701825 2.3509886e-38
-0.055855662 0.0039839218 0.33695099 2.3509886e-38
-0.055653777 0.0039839218 0.33693752 2.3509886e-38
-0.055451889 0.0039839218 0.33691061 2.3509886e-38
-0.055263456 0.0039839218 0.33689713 2.3509886e-38
-0.055061571 0.0039839218 0.33687022 2.3509886e-38
-0.054846223 0.0039704628 0.33680293 2.3509886e-38
-0.054644335 0.0039704628 0.33670869 2.3509886e-38
-0.05445591 0.0039704628 0.33672217 2.3509886e-38
-0.054254018 0.0039704628 0.33673561 2.3509886e-38
-0.054052129 0.0039704628 0.33665487 2.3509886e-38
-0.053850245 0.0039704628 0.33665487 2.3509886e-38
-0.053648356 0.0039704628 0.33660102 2.3509886e-38
-0.053446468 0.0039704628 0.33657411 2.3509886e-38
-0.05324458 0.0039704628 0.33650681 2.3509886e-38
-0.053042691 0.0039704628 0.33645299 2.3509886e-38
-0.052827347 0.0039704628 0.33634531 2.3509886e-38
-0.052625455 0.0039704628 0.33625108 2.3509886e-38
-0.052423567 0.0039704628 0.33623764 2.3509886e-38
-0.052221682 0.0039704628 0.33622417 2.3509886e-38
-0.052033253 0.0039704628 0.3362107 2.3509886e-38
-0.051831361 0.0039704628 0.33618379 2.3509886e-38
-0.051629476 0.0039704628 0.33612996 2.3509886e-38
-0.051441047 0.0039704628 0.3361434 2.3509886e-38
-0.051239163 0.0039704628 0.33610305 2.3509886e-38
-0.051037271 0.0039704628 0.33603576 2.3509886e-38
-0.050835382 0.0039704628 0.33598191 2.3509886e-38
-0.050620034 0.0039704628 0.33591464 2.3509886e-38
-0.050431609 0.0039704628 0.33591464 2.3509886e-38
-0.050243177 0.0039704628 0.33592808 2.3509886e-38
-0.050041292 0.0039704628 0.33591464 2.3509886e-38
-0.049839403 0.0039704628 0.33588767 2.3509886e-38
-0.049650975 0.0039704628 0.33586076 2.3509886e-38
-0.049449086 0.0039704628 0.33586076 2.3509886e-38
-0.049247198 0.0039704628 0.33582038 2.3509886e-38
-0.049045309 0.0039704628 0.33579347 2.3509886e-38
-0.048856884 0.0039704628 0.33576655 2.3509886e-38
-0.048654992 0.0039704628 0.33571273 2.3509886e-38
-0.048453104 0.0039704628 0.33571273 2.3509886e-38
-0.048264679 0.0039704628 0.33569926 2.3509886e-38
-0.04806279 0.0039704628 0.33567235 2.3509886e-38
-0.047860898 0.0039570034 0.33560506 2.3509886e-38
-0.047672473 0.0039570034 0.33561853 2.3509886e-38
-0.047470585 0.0039570034 0.33561853 2.3509886e-38
-0.047282156 0.0039570034 0.33560506 2.3509886e-38
-0.047080267 0.0039570034 0.33556467 2.3509886e-38
-0.046878379 0.0039570034 0.33549738 2.3509886e-38
-0.046676494 0.0039570034 0.33544353 2.3509886e-38
-0.046474606 0.0039570034 0.33540314 2.3509886e-38
-0.073837146 0.0041992692 0.33890253 1.9729865e-38
-0.073716015 0.0041992692 0.33927941 2.0651821e-38
-0.073554508 0.0041992692 0.33941403 2.1665973e-38
-0.073419921 0.0041992692 0.33973703 2.0375234e-38
-0.073298775 0.0042127282 0.34003311 1.8807908e-38
-0.073002681 0.0041992692 0.33961588 1.9176691e-38
-0.072827712 0.0041992692 0.33971009 1.982206e-38
-0.072625823 0.0041992692 0.33965626 2.046743e-38
-0.072383553 0.0041992692 0.33946785 2.0928408e-38
-0.072181664 0.0041992692 0.33945438 2.1665973e-38
-0.071993239 0.0041992692 0.33945438 2.2311342e-38
-0.071804814 0.0041992692 0.33948129 2.2956712e-38
-0.071602926 0.0041992692 0.33952168 2.3509886e-38
-0.071387574 0.0041992692 0.33942747 2.3509886e-38
-0.071212605 0.0041992692 0.33946785 2.341769e-38
-0.071010716 0.0041992692 0.33950824 2.3509886e-38
-0.07084921 0.0041992692 0.33961588 2.3509886e-38
-0.070647322 0.0041992692 0.33962935 2.3509886e-38
-0.070445433 0.0041992692 0.33961588 2.3509886e-38
-0.070257001 0.0041992692 0.33962935 2.3509886e-38
-0.070041656 0.0041992692 0.33954859 2.3509886e-38
-0.069866687 0.0041992692 0.33964282 2.3509886e-38
-0.069624424 0.0041992692 0.33941403 2.3509886e-38
-0.069422536 0.0041992692 0.33937365 2.3509886e-38
-0.069220647 0.0041992692 0.33938709 2.3509886e-38
-0.069018759 0.0041992692 0.33934671 2.3509886e-38
-0.06881687 0.0041992692 0.33931977 2.3509886e-38
-0.068601519 0.0041992692 0.33923903 2.3509886e-38
-0.06839963 0.0041992692 0.33917174 2.3509886e-38
-0.06819775 0.0041992692 0.33915827 2.3509886e-38
-0.067995861 0.0041992692 0.33917174 2.3509886e-38
-0.06778051 0.0041992692 0.33907753 2.3509886e-38
-0.067592084 0.0041992692 0.33907753 2.3509886e-38
-0.067363277 0.0041992692 0.33895642 2.3509886e-38
-0.067161389 0.0041992692 0.33887562 2.3509886e-38
-0.066946037 0.0041992692 0.3388218 2.3509886e-38
-0.066744149 0.0041992692 0.33876795 2.3509886e-38
-0.06654226 0.0041992692 0.33878142 2.3509886e-38
-0.066353843 0.0041992692 0.3387545 2.3509886e-38
-0.066138491 0.0041992692 0.33870068 2.3509886e-38
-0.065936603 0.0041858098 0.3386603 2.3509886e-38
-0.065721259 0.0041858098 0.33859301 2.3509886e-38
-0.065532826 0.0041858098 0.33860645 2.3509886e-38
-0.065330938 0.0041858098 0.33857954 2.3509886e-38
-0.065129049 0.0041858098 0.33853918 2.3509886e-38
-0.064927168 0.0041858098 0.33852571 2.3509886e-38
-0.064711817 0.0041858098 0.33841801 2.3509886e-38
-0.064509928 0.0041858098 0.33835071 2.3509886e-38
-0.064334959 0.0041858098 0.33847186 2.3509886e-38
-0.064119607 0.0041858098 0.33841801 2.3509886e-38
-0.063931182 0.0041858098 0.33840457 2.3509886e-38
-0.063715838 0.0041858098 0.33835071 2.3509886e-38
-0.063527405 0.0041858098 0.3383238 2.3509886e-38
-0.063312054 0.0041858098 0.33826998 2.3509886e-38
-0.063110173 0.0041858098 0.33821616 2.3509886e-38
-0.062908284 0.0041858098 0.33817577 2.3509886e-38
-0.062706396 0.0041858098 0.33818921 2.3509886e-38
-0.062504508 0.0041858098 0.33814886 2.3509886e-38
-0.062302619 0.0041858098 0.33812192 2.3509886e-38
-0.062114187 0.0041858098 0.33810848 2.3509886e-38
-0.061912302 0.0041858098 0.3380681 2.3509886e-38
-0.061696954 0.0041858098 0.33800077 2.3509886e-38
-0.061508525 0.0041858098 0.33798733 2.3509886e-38
-0.061293177 0.0041858098 0.33794695 2.3509886e-38
-0.061091293 0.0041858098 0.33792004 2.3509886e-38
-0.060889404 0.0041858098 0.33787966 2.3509886e-38
-0.060687516 0.0041858098 0.33783928 2.3509886e-38
-0.060485624 0.0041858098 0.33779889 2.3509886e-38
-0.060297199 0.0041858098 0.33781236 2.3509886e-38
-0.06009531 0.0041858098 0.33777198 2.3509886e-38
-0.059893426 0.0041858098 0.33774507 2.3509886e-38
-0.059704993 0.0041858098 0.33775854 2.3509886e-38
-0.059503105 0.0041858098 0.3377316 2.3509886e-38
-0.059287757 0.0041858098 0.33766434 2.3509886e-38
-0.059085872 0.0041858098 0.33761045 2.3509886e-38
-0.058883984 0.0041858098 0.33754316 2.3509886e-38
-0.058682095 0.0041858098 0.33751625 2.3509886e-38
-0.058480207 0.0041723507 0.33746243 2.3509886e-38
-0.058278318 0.0041723507 0.33743551 2.3509886e-38
-0.058062971 0.0041723507 0.33736822 2.3509886e-38
-0.057861082 0.0041723507 0.33731437 2.3509886e-38
-0.057659194 0.0041723507 0.33730093 2.3509886e-38
-0.057470769 0.0041723507 0.33726054 2.3509886e-38
-0.057268877 0.0041723507 0.33724707 2.3509886e-38
-0.057053529 0.0041723507 0.33716631 2.3509886e-38
-0.056851644 0.0041723507 0.33709902 2.3509886e-38
-0.056636296 0.0041723507 0.33699134 2.3509886e-38
-0.056447867 0.0041723507 0.33700481 2.3509886e-38
-0.056245983 0.0041723507 0.3369779 2.3509886e-38
-0.056030635 0.0041723507 0.33687022 2.3509886e-38
-0.055842202 0.0041723507 0.33692405 2.3509886e-38
-0.055653777 0.0041723507 0.33691061 2.3509886e-38
-0.055451889 0.0041723507 0.33689713 2.3509886e-38
-0.05525 0.0041723507 0.33688369 2.3509886e-38
-0.055048112 0.0041723507 0.3368164 2.3509886e-38
-0.054832768 0.0041723507 0.33672217 2.3509886e-38
-0.054644335 0.0041723507 0.33669522 2.3509886e-38
-0.054442447 0.0041723507 0.33666831 2.3509886e-38
-0.054254018 0.0041723507 0.33669522 2.3509886e-38
-0.054038674 0.0041723507 0.33662796 2.3509886e-38
-0.053836782 0.0041723507 0.33658758 2.3509886e-38
-0.053634897 0.0041723507 0.33653373 2.3509886e-38
-0.053446468 0.0041723507 0.33652028 2.3509886e-38
-0.05324458 0.0041723507 0.3364799 2.3509886e-38
-0.053029232 0.0041723507 0.33637223 2.3509886e-38
-0.052827347 0.0041588913 0.33629146 2.3509886e-38
-0.052611999 0.0041588913 0.33622417 2.3509886e-38
-0.052410111 0.0041588913 0.33617035 2.3509886e-38
-0.052221682 0.0041588913 0.33617035 2.3509886e-38
-0.052019794 0.0041588913 0.33617035 2.3509886e-38
-0.051831361 0.0041588913 0.33615687 2.3509886e-38
-0.051629476 0.0041588913 0.33611649 2.3509886e-38
-0.051427588 0.0041588913 0.33608958 2.3509886e-38
-0.051239163 0.0041588913 0.33607614 2.3509886e-38
-0.051023815 0.0041588913 0.33600885 2.3509886e-38
-0.050821926 0.0041588913 0.33595499 2.3509886e-38
-0.050620034 0.0041588913 0.33590117 2.3509886e-38
-0.050431609 0.0041588913 0.33588767 2.3509886e-38
-0.050229721 0.0041588913 0.33588767 2.3509886e-38
-0.050041292 0.0041588913 0.33588767 2.3509886e-38
-0.049839403 0.0041588913 0.33584732 2.3509886e-38
-0.049637515 0.0041588913 0.33583385 2.3509886e-38
-0.049449086 0.0041588913 0.33583385 2.3509886e-38
-0.049247198 0.0041588913 0.33580694 2.3509886e-38
-0.049045309 0.0041588913 0.33576655 2.3509886e-38
-0.048843425 0.0041588913 0.33571273 2.3509886e-38
-0.048654992 0.0041588913 0.33571273 2.3509886e-38
-0.048453104 0.0041588913 0.33568582 2.3509886e-38
-0.048251219 0.0041588913 0.33567235 2.3509886e-38
-0.04806279 0.0041588913 0.33564544 2.3509886e-38
-0.047860898 0.0041588913 0.33560506 2.3509886e-38
-0.047659013 0.0041588913 0.33559158 2.3509886e-38
-0.047470585 0.0041588913 0.33559158 2.3509886e-38
-0.0472687 0.0041588913 0.33557814 2.3509886e-38
-0.047066808 0.0041588913 0.33552432 2.3509886e-38
-0.046864919 0.0041588913 0.33547047 2.3509886e-38
-0.046663031 0.0041588913 0.33540314 2.3509886e-38
-0.046474606 0.0041588913 0.33537623 2.3509886e-38
-0.07382369 0.0043876981 0.33884871 1.9545474e-38
-0.073689096 0.0043876981 0.33914483 2.0375234e-38
-0.073621802 0.0044011571 0.33975047 2.1481582e-38
-0.073473752 0.0044011571 0.33995238 2.0375234e-38
-0.073218025 0.0044011571 0.33965626 1.8900104e-38
-0.072989225 0.0044011571 0.33953515 1.8900104e-38
-0.072787337 0.0044011571 0.33948129 1.9361082e-38
-0.072571985 0.0044011571 0.33945438 2.0006452e-38
-0.072397016 0.0044011571 0.33952168 2.0744017e-38
-0.072181664 0.0044011571 0.33945438 2.1573777e-38
-0.07196632 0.0044011571 0.33937365 2.2311342e-38
-0.071804814 0.0044011571 0.33948129 2.2956712e-38
-0.071589462 0.0044011571 0.33940056 2.3509886e-38
-0.071387574 0.0044011571 0.33942747 2.3509886e-38
-0.071212605 0.0044011571 0.33950824 2.341769e-38
-0.071010716 0.0044011571 0.33949476 2.3509886e-38
-0.070835747 0.0044011571 0.33957553 2.3509886e-38
-0.070633858 0.0044011571 0.33954859 2.3509886e-38
-0.07043197 0.0044011571 0.33954859 2.3509886e-38
-0.070243545 0.0044011571 0.33954859 2.3509886e-38
-0.070028193 0.0044011571 0.33949476 2.3509886e-38
-0.069826312 0.0044011571 0.33942747 2.3509886e-38
-0.069597498 0.0044011571 0.33930632 2.3509886e-38
-0.06940908 0.0044011571 0.33933324 2.3509886e-38
-0.069207184 0.0044011571 0.33931977 2.3509886e-38
-0.069005296 0.0044011571 0.33926594 2.3509886e-38
-0.068789952 0.0043876981 0.33918521 2.3509886e-38
-0.0685746 0.0043876981 0.33913136 2.3509886e-38
-0.068372712 0.0043876981 0.339091 2.3509886e-38
-0.068170823 0.0043876981 0.33906406 2.3509886e-38
-0.067968935 0.0043876981 0.33899677 2.3509886e-38
-0.06778051 0.0043876981 0.33905062 2.3509886e-38
-0.067565165 0.0043876981 0.33898333 2.3509886e-38
-0.067363277 0.0043876981 0.33895642 2.3509886e-38
-0.067147933 0.0043876981 0.33884871 2.3509886e-38
-0.066946037 0.0043876981 0.33878142 2.3509886e-38
-0.066703774 0.0043876981 0.33857954 2.3509886e-38
-0.066515349 0.0043876981 0.33860645 2.3509886e-38
-0.06631346 0.0043876981 0.33860645 2.3509886e-38
-0.066111565 0.0043876981 0.33855262 2.3509886e-38
-0.065909684 0.0043876981 0.33851224 2.3509886e-38
-0.065707795 0.0043876981 0.33849877 2.3509886e-38
-0.06551937 0.0043876981 0.33853918 2.3509886e-38
-0.065317474 0.0043876981 0.33847186 2.3509886e-38
-0.065115586 0.0043876981 0.33847186 2.3509886e-38
-0.064900242 0.0043876981 0.33840457 2.3509886e-38
-0.064711817 0.0043876981 0.3383911 2.3509886e-38
-0.064509928 0.0043876981 0.33836418 2.3509886e-38
-0.06430804 0.0043876981 0.33836418 2.3509886e-38
-0.064119607 0.0043876981 0.33835071 2.3509886e-38
-0.063917719 0.0043876981 0.33831036 2.3509886e-38
-0.063715838 0.0043876981 0.33829689 2.3509886e-38
-0.063500486 0.0043876981 0.33824307 2.3509886e-38
-0.063312054 0.0043876981 0.33821616 2.3509886e-38
-0.06309671 0.0043876981 0.33818921 2.3509886e-38
-0.062908284 0.0043876981 0.3381623 2.3509886e-38
-0.062706396 0.0043876981 0.33813539 2.3509886e-38
-0.062491044 0.0043876981 0.33808157 2.3509886e-38
-0.062302619 0.0043876981 0.33809501 2.3509886e-38
-0.062100731 0.0043742387 0.33802769 2.3509886e-38
-0.061898842 0.0043742387 0.33801425 2.3509886e-38
-0.061696954 0.0043742387 0.33797386 2.3509886e-38
-0.061495066 0.0043742387 0.33796039 2.3509886e-38
-0.061293177 0.0043742387 0.33790657 2.3509886e-38
-0.061091293 0.0043742387 0.33786619 2.3509886e-38
-0.060889404 0.0043742387 0.33782583 2.3509886e-38
-0.060687516 0.0043742387 0.33778545 2.3509886e-38
-0.060472168 0.0043742387 0.33774507 2.3509886e-38
-0.060283739 0.0043742387 0.33774507 2.3509886e-38
-0.060081851 0.0043742387 0.33770469 2.3509886e-38
-0.059893426 0.0043742387 0.33774507 2.3509886e-38
-0.059691533 0.0043742387 0.33769125 2.3509886e-38
-0.059489645 0.0043742387 0.33766434 2.3509886e-38
-0.059287757 0.0043742387 0.33762392 2.3509886e-38
-0.059072409 0.0043742387 0.33754316 2.3509886e-38
-0.058870524 0.0043742387 0.33748934 2.3509886e-38
-0.058668636 0.0043742387 0.33746243 2.3509886e-38
-0.058480207 0.0043742387 0.33746243 2.3509886e-38
-0.058264863 0.0043742387 0.33735475 2.3509886e-38
-0.058062971 0.0043742387 0.33732784 2.3509886e-38
-0.057861082 0.0043742387 0.33730093 2.3509886e-38
-0.057659194 0.0043742387 0.33727401 2.3509886e-38
-0.057470769 0.0043742387 0.33726054 2.3509886e-38
-0.057255421 0.0043742387 0.33720672 2.3509886e-38
-0.057053529 0.0043742387 0.33711249 2.3509886e-38
-0.056838185 0.0043742387 0.33704519 2.3509886e-38
