# .PCD v0.7 - Point Cloud Data file format
VERSION 0.7
FIELDS x y z rgb
SIZE 4 4 4 4
TYPE F F F F
COUNT 1 1 1 1
WIDTH 963
HEIGHT 1
VIEWPOINT 0 0 0 1 0 0 0
POINTS 963
DATA ascii
-0.038291413 0.010740438 0.335134 2.3509886e-38
-0.038089525 0.010740438 0.33503979 2.3509886e-38
-0.037901096 0.010726979 0.33502632 2.3509886e-38
-0.037699208 0.010726979 0.33499938 2.3509886e-38
-0.037497319 0.010726979 0.33494553 2.3509886e-38
-0.037295431 0.010726979 0.33491862 2.3509886e-38
-0.037093546 0.010726979 0.33482441 2.3509886e-38
-0.036891658 0.010726979 0.33477059 2.3509886e-38
-0.036703225 0.010726979 0.33481097 2.3509886e-38
-0.0365148 0.010726979 0.3347975 2.3509886e-38
-0.036312912 0.010726979 0.33475712 2.3509886e-38
-0.036111023 0.010726979 0.33464947 2.3509886e-38
-0.035909135 0.010726979 0.334636 2.3509886e-38
-0.035720706 0.010726979 0.334636 2.3509886e-38
-0.035518821 0.01071352 0.33460909 2.3509886e-38
-0.035330389 0.01071352 0.33456868 2.3509886e-38
-0.0351285 0.01071352 0.33456868 2.3509886e-38
-0.034940071 0.01071352 0.33451486 2.3509886e-38
-0.034724727 0.01071352 0.33438027 2.3509886e-38
-0.034536298 0.01071352 0.33442065 2.3509886e-38
-0.034347869 0.01071352 0.33447447 2.3509886e-38
-0.034145977 0.01071352 0.33438027 2.3509886e-38
-0.033957552 0.01071352 0.33440718 2.3509886e-38
-0.033742204 0.01071352 0.33421877 2.3509886e-38
-0.033540316 0.01070006 0.33416495 2.3509886e-38
-0.033365346 0.01071352 0.33423221 2.3509886e-38
-0.033163458 0.01071352 0.33423221 2.3509886e-38
-0.032975029 0.01071352 0.33427259 2.3509886e-38
-0.032773141 0.01071352 0.33423221 2.3509886e-38
-0.032571256 0.01070006 0.33412454 2.3509886e-38
-0.032382827 0.01070006 0.33419186 2.3509886e-38
-0.032194398 0.01071352 0.3342053 2.3509886e-38
-0.032005969 0.01071352 0.33421877 2.3509886e-38
-0.031817541 0.01071352 0.33427259 2.3509886e-38
-0.031629112 0.01071352 0.33431298 2.3509886e-38
-0.031413764 0.01070006 0.33416495 2.3509886e-38
-0.031225335 0.01071352 0.3342053 2.3509886e-38
-0.030646589 0.01070006 0.33415148 2.3509886e-38
-0.03045816 0.01070006 0.33419186 2.3509886e-38
-0.030256273 0.01070006 0.33415148 2.3509886e-38
-0.030067844 0.01070006 0.33411106 2.3509886e-38
-0.029865956 0.01070006 0.33407068 2.3509886e-38
-0.029664068 0.01070006 0.33392265 2.3509886e-38
-0.029502558 0.01071352 0.3342995 2.3509886e-38
-0.029300669 0.01071352 0.3342995 2.3509886e-38
-0.02911224 0.01071352 0.33421877 2.3509886e-38
-0.028533496 0.01071352 0.33433989 2.3509886e-38
-0.028345067 0.01071352 0.33432645 2.3509886e-38
-0.028143179 0.01071352 0.33432645 2.3509886e-38
-0.02795475 0.01071352 0.33423221 2.3509886e-38
-0.027752863 0.01070006 0.33417839 2.3509886e-38
-0.027550975 0.01070006 0.33415148 2.3509886e-38
-0.027362546 0.01070006 0.33411106 2.3509886e-38
-0.027160658 0.01070006 0.33405724 2.3509886e-38
-0.026972229 0.01070006 0.33407068 2.3509886e-38
-0.026770342 0.01070006 0.33403033 2.3509886e-38
-0.026581913 0.01070006 0.33397648 2.3509886e-38
-0.026353104 0.010686602 0.33366692 2.3509886e-38
-0.026164677 0.010686602 0.33357272 2.3509886e-38
-0.025962789 0.010686602 0.33362654 2.3509886e-38
-0.02577436 0.010686602 0.33351886 2.3509886e-38
-0.025599392 0.01070006 0.33390918 2.3509886e-38
-0.025410963 0.01070006 0.33389574 2.3509886e-38
-0.025209073 0.01070006 0.33385536 2.3509886e-38
-0.025020646 0.01070006 0.33390918 2.3509886e-38
-0.024832217 0.01070006 0.33392265 2.3509886e-38
-0.024643788 0.01070006 0.33392265 2.3509886e-38
-0.0244419 0.01070006 0.33390918 2.3509886e-38
-0.024253471 0.01070006 0.33382845 2.3509886e-38
-0.024051584 0.010686602 0.33377463 2.3509886e-38
-0.023863155 0.010686602 0.33376116 2.3509886e-38
-0.023661267 0.010686602 0.33373424 2.3509886e-38
-0.023472838 0.010686602 0.33368036 2.3509886e-38
-0.02327095 0.010686602 0.33359963 2.3509886e-38
-0.023069063 0.010686602 0.33355924 2.3509886e-38
-0.022880634 0.010686602 0.3335458 2.3509886e-38
-0.022678744 0.010686602 0.33350542 2.3509886e-38
-0.022490317 0.010686602 0.33351886 2.3509886e-38
-0.022288429 0.010673142 0.33331701 2.3509886e-38
-0.0221 0.010673142 0.33335736 2.3509886e-38
-0.021898113 0.010673142 0.33319584 2.3509886e-38
-0.021709684 0.010673142 0.33327663 2.3509886e-38
-0.021521255 0.010673142 0.33333045 2.3509886e-38
-0.021332826 0.010686602 0.33350542 2.3509886e-38
-0.021144398 0.010686602 0.33350542 2.3509886e-38
-0.020942509 0.010686602 0.33350542 2.3509886e-38
-0.02075408 0.010686602 0.33351886 2.3509886e-38
-0.020565651 0.010686602 0.33351886 2.3509886e-38
-0.020363763 0.010686602 0.33343813 2.3509886e-38
-0.020175334 0.010673142 0.33338431 2.3509886e-38
-0.019973448 0.010673142 0.33333045 2.3509886e-38
-0.019785019 0.010673142 0.3332901 2.3509886e-38
-0.01958313 0.010673142 0.33326313 2.3509886e-38
-0.019394701 0.010673142 0.33322278 2.3509886e-38
-0.019192813 0.010673142 0.33320931 2.3509886e-38
-0.019004384 0.010673142 0.33318239 2.3509886e-38
-0.018789038 0.010659683 0.33288631 2.3509886e-38
-0.018600609 0.010659683 0.33287284 2.3509886e-38
-0.01841218 0.010659683 0.33288631 2.3509886e-38
-0.018210292 0.010659683 0.33288631 2.3509886e-38
-0.018021863 0.010659683 0.33276516 2.3509886e-38
-0.017819976 0.010659683 0.33273825 2.3509886e-38
-0.017631548 0.010659683 0.33269787 2.3509886e-38
-0.017443119 0.010659683 0.33272478 2.3509886e-38
-0.01724123 0.010659683 0.33273825 2.3509886e-38
-0.017052801 0.010659683 0.33264402 2.3509886e-38
-0.016877832 0.010673142 0.33308819 2.3509886e-38
-0.016689403 0.010673142 0.33310163 2.3509886e-38
-0.016487515 0.010673142 0.33308819 2.3509886e-38
-0.016299086 0.010673142 0.33307472 2.3509886e-38
-0.01608374 0.010659683 0.3326171 2.3509886e-38
-0.015895311 0.010646225 0.33254981 2.3509886e-38
-0.015720341 0.010659683 0.33296704 2.3509886e-38
-0.015531912 0.010673142 0.33298051 2.3509886e-38
-0.015330024 0.010659683 0.33298051 2.3509886e-38
-0.015141595 0.010673142 0.33299398 2.3509886e-38
-0.014953167 0.010659683 0.33296704 2.3509886e-38
-0.014751279 0.010659683 0.33296704 2.3509886e-38
-0.01456285 0.010659683 0.33298051 2.3509886e-38
-0.014374422 0.010673142 0.33300743 2.3509886e-38
-0.014185993 0.010673142 0.3330209 2.3509886e-38
-0.013984105 0.010673142 0.33304781 2.3509886e-38
-0.013795676 0.010673142 0.33306128 2.3509886e-38
-0.013607247 0.010673142 0.33310163 2.341769e-38
-0.046340015 0.010955785 0.33587423 2.3509886e-38
-0.046151582 0.010955785 0.33584732 2.3509886e-38
-0.045949694 0.010955785 0.33579347 2.3509886e-38
-0.045747809 0.010955785 0.33572617 2.3509886e-38
-0.045559376 0.010955785 0.33576655 2.3509886e-38
-0.045357488 0.010955785 0.33579347 2.3509886e-38
-0.045169063 0.010955785 0.33579347 2.3509886e-38
-0.044967175 0.010955785 0.33576655 2.3509886e-38
-0.044765286 0.010942326 0.33569926 2.3509886e-38
-0.044576857 0.010955785 0.33571273 2.3509886e-38
-0.044388428 0.010955785 0.33575311 2.3509886e-38
-0.04418654 0.010955785 0.33571273 2.3509886e-38
-0.043984652 0.010942326 0.33565888 2.3509886e-38
-0.043782767 0.010942326 0.33564544 2.3509886e-38
-0.043594334 0.010942326 0.33565888 2.3509886e-38
-0.043392446 0.010942326 0.33556467 2.3509886e-38
-0.043204021 0.010942326 0.33560506 2.3509886e-38
-0.043002132 0.010942326 0.33556467 2.3509886e-38
-0.04280024 0.010942326 0.33552432 2.3509886e-38
-0.042611815 0.010942326 0.33559158 2.3509886e-38
-0.042436846 0.010942326 0.33567235 2.3509886e-38
-0.042221498 0.010942326 0.33552432 2.3509886e-38
-0.042033069 0.010942326 0.33555123 2.3509886e-38
-0.041831184 0.010942326 0.33547047 2.3509886e-38
-0.041629292 0.010942326 0.33544353 2.3509886e-38
-0.041440863 0.010942326 0.33548394 2.3509886e-38
-0.041238979 0.010942326 0.33545703 2.3509886e-38
-0.04103709 0.010942326 0.33540314 2.3509886e-38
-0.040848661 0.010942326 0.33537623 2.3509886e-38
-0.040646773 0.010942326 0.3352955 2.3509886e-38
-0.04045834 0.010942326 0.33540314 2.3509886e-38
-0.040242996 0.010928866 0.33526856 2.3509886e-38
-0.040054567 0.010928866 0.33526856 2.3509886e-38
-0.039852679 0.010928866 0.33525512 2.3509886e-38
-0.03966425 0.010928866 0.3352282 2.3509886e-38
-0.039475821 0.010928866 0.33525512 2.3509886e-38
-0.039273936 0.010928866 0.3352282 2.3509886e-38
-0.039085504 0.010928866 0.33526856 2.3509886e-38
-0.038883615 0.010928866 0.33521473 2.3509886e-38
-0.03869519 0.010928866 0.33524165 2.3509886e-38
-0.038506761 0.010928866 0.33525512 2.3509886e-38
-0.038304873 0.010928866 0.33521473 2.3509886e-38
-0.038102984 0.010928866 0.33514744 2.3509886e-38
-0.037901096 0.010928866 0.33514744 2.3509886e-38
-0.037712667 0.010928866 0.33508015 2.3509886e-38
-0.037510779 0.010928866 0.33502632 2.3509886e-38
-0.037308894 0.010928866 0.33493209 2.3509886e-38
-0.037107006 0.010928866 0.33489171 2.3509886e-38
-0.036905114 0.010915408 0.33487824 2.3509886e-38
-0.036716688 0.010915408 0.33485132 2.3509886e-38
-0.0365148 0.010915408 0.33478403 2.3509886e-38
-0.035532277 0.010915408 0.334636 2.3509886e-38
-0.035330389 0.010915408 0.33455521 2.3509886e-38
-0.035141964 0.010915408 0.33459562 2.3509886e-38
-0.034940071 0.010915408 0.3345283 2.3509886e-38
-0.034738183 0.010915408 0.3345283 2.3509886e-38
-0.034536298 0.010901948 0.33443409 2.3509886e-38
-0.034347869 0.010901948 0.33444756 2.3509886e-38
-0.034159441 0.010915408 0.33451486 2.3509886e-38
-0.033957552 0.010901948 0.33439371 2.3509886e-38
-0.033755664 0.010901948 0.3342995 2.3509886e-38
-0.033567235 0.010901948 0.33431298 2.3509886e-38
-0.033365346 0.010901948 0.33427259 2.3509886e-38
-0.033176921 0.010901948 0.33428606 2.3509886e-38
-0.032436661 0.010915408 0.33474368 2.3509886e-38
-0.032221314 0.010901948 0.33440718 2.3509886e-38
-0.032005969 0.010901948 0.33421877 2.3509886e-38
-0.031817541 0.010901948 0.33427259 2.3509886e-38
-0.031629112 0.010901948 0.33431298 2.3509886e-38
-0.031427223 0.010901948 0.33428606 2.3509886e-38
-0.031252254 0.010901948 0.33438027 2.3509886e-38
-0.031050365 0.010901948 0.33439371 2.3509886e-38
-0.030861937 0.010901948 0.3343668 2.3509886e-38
-0.030646589 0.010901948 0.33421877 2.3509886e-38
-0.030471619 0.010901948 0.3342995 2.3509886e-38
-0.030269731 0.010901948 0.33419186 2.3509886e-38
-0.030081302 0.010901948 0.33427259 2.3509886e-38
-0.029879415 0.010901948 0.3342053 2.3509886e-38
-0.029677527 0.010901948 0.33409762 2.3509886e-38
-0.029475639 0.010888489 0.33404377 2.3509886e-38
-0.029314129 0.010901948 0.33435336 2.3509886e-38
-0.02911224 0.010901948 0.33428606 2.3509886e-38
-0.028923813 0.010901948 0.3343668 2.3509886e-38
-0.028735384 0.010901948 0.33443409 2.3509886e-38
-0.028546955 0.010901948 0.33439371 2.3509886e-38
-0.028345067 0.010901948 0.33440718 2.3509886e-38
-0.028156638 0.010901948 0.33439371 2.3509886e-38
-0.02795475 0.010901948 0.33432645 2.3509886e-38
-0.027752863 0.010901948 0.33427259 2.3509886e-38
-0.027564434 0.010901948 0.33425915 2.3509886e-38
-0.027362546 0.010901948 0.33421877 2.3509886e-38
-0.027174117 0.010901948 0.33417839 2.3509886e-38
-0.026972229 0.010901948 0.33415148 2.3509886e-38
-0.0267838 0.010901948 0.33408415 2.3509886e-38
-0.026581913 0.010888489 0.33405724 2.3509886e-38
-0.026393484 0.010901948 0.33405724 2.3509886e-38
-0.026178136 0.010888489 0.33374768 2.3509886e-38
-0.02597625 0.010888489 0.3337073 2.3509886e-38
-0.025801279 0.010888489 0.33398995 2.3509886e-38
-0.02561285 0.010888489 0.33398995 2.3509886e-38
-0.025424421 0.010888489 0.33398995 2.3509886e-38
-0.025222534 0.010888489 0.33394957 2.3509886e-38
-0.025034105 0.010888489 0.33398995 2.3509886e-38
-0.024845676 0.010888489 0.33398995 2.3509886e-38
-0.024643788 0.010888489 0.33397648 2.3509886e-38
-0.024455359 0.010888489 0.33398995 2.3509886e-38
-0.024253471 0.010888489 0.33392265 2.3509886e-38
-0.024065042 0.010888489 0.33388227 2.3509886e-38
-0.023863155 0.010888489 0.33384189 2.3509886e-38
-0.023674726 0.010888489 0.33381498 2.3509886e-38
-0.023472838 0.010888489 0.33376116 2.3509886e-38
-0.02327095 0.010888489 0.33372077 2.3509886e-38
-0.023082521 0.01087503 0.33364001 2.3509886e-38
-0.022880634 0.01087503 0.33362654 2.3509886e-38
-0.022692205 0.01087503 0.33359963 2.3509886e-38
-0.022503776 0.01087503 0.33362654 2.3509886e-38
-0.022301888 0.01087503 0.33350542 2.3509886e-38
-0.0221 0.01087503 0.33335736 2.3509886e-38
-0.021911571 0.01087503 0.33342466 2.3509886e-38
-0.021709684 0.01087503 0.33341122 2.3509886e-38
-0.021521255 0.01087503 0.33337083 2.3509886e-38
-0.021319365 0.01087503 0.33327663 2.3509886e-38
-0.021144398 0.01087503 0.33362654 2.3509886e-38
-0.020955969 0.01087503 0.33362654 2.3509886e-38
-0.02076754 0.01087503 0.33362654 2.3509886e-38
-0.020565651 0.01087503 0.33362654 2.3509886e-38
-0.020377222 0.01087503 0.33357272 2.3509886e-38
-0.020175334 0.01087503 0.33351886 2.3509886e-38
-0.019986907 0.01087503 0.3334516 2.3509886e-38
-0.019785019 0.01087503 0.33342466 2.3509886e-38
-0.01959659 0.01087503 0.33337083 2.3509886e-38
-0.019394701 0.01087503 0.33333045 2.3509886e-38
-0.019206272 0.01087503 0.33334392 2.3509886e-38
-0.018990926 0.010861571 0.33299398 2.3509886e-38
-0.018802498 0.010861571 0.33304781 2.3509886e-38
-0.018614069 0.010861571 0.3330209 2.3509886e-38
-0.01841218 0.010861571 0.33298051 2.3509886e-38
-0.018223751 0.010861571 0.33298051 2.3509886e-38
-0.018021863 0.010848111 0.33284593 2.3509886e-38
-0.017833434 0.010861571 0.33289978 2.3509886e-38
-0.017658465 0.010861571 0.33322278 2.3509886e-38
-0.017470036 0.010861571 0.33324969 2.3509886e-38
-0.017268149 0.010861571 0.33322278 2.3509886e-38
-0.01707972 0.010861571 0.33322278 2.3509886e-38
-0.016891291 0.010861571 0.33322278 2.3509886e-38
-0.016689403 0.010861571 0.33320931 2.3509886e-38
-0.016500974 0.010861571 0.33320931 2.3509886e-38
-0.016312545 0.010861571 0.33320931 2.3509886e-38
-0.01608374 0.010848111 0.33265749 2.3509886e-38
-0.015895311 0.010848111 0.33267096 2.3509886e-38
-0.015720341 0.010861571 0.33312854 2.3509886e-38
-0.015531912 0.010861571 0.3331151 2.3509886e-38
-0.015343484 0.010861571 0.33312854 2.3509886e-38
-0.015141595 0.010861571 0.33310163 2.3509886e-38
-0.014953167 0.010861571 0.33310163 2.3509886e-38
-0.014737819 0.010848111 0.33263057 2.3509886e-38
-0.01454939 0.010848111 0.33263057 2.3509886e-38
-0.014374422 0.010861571 0.33312854 2.3509886e-38
-0.014185993 0.010861571 0.33314201 2.3509886e-38
-0.013997564 0.010861571 0.33316892 2.3509886e-38
-0.013809135 0.010861571 0.33319584 2.3509886e-38
-0.013607247 0.010861571 0.33326313 2.3325494e-38
-0.046353471 0.011157674 0.33598191 2.3509886e-38
-0.046165042 0.011157674 0.33600885 2.3509886e-38
-0.045949694 0.011144214 0.33582038 2.3509886e-38
-0.045761269 0.011144214 0.33586076 2.3509886e-38
-0.045559376 0.011144214 0.33583385 2.3509886e-38
-0.045370951 0.011144214 0.33586076 2.3509886e-38
-0.045169063 0.011144214 0.33582038 2.3509886e-38
-0.044967175 0.011144214 0.33579347 2.3509886e-38
-0.044778746 0.011144214 0.33580694 2.3509886e-38
-0.044590317 0.011144214 0.33579347 2.3509886e-38
-0.044388428 0.011144214 0.33579347 2.3509886e-38
-0.04418654 0.011144214 0.33576655 2.3509886e-38
-0.043998111 0.011144214 0.33571273 2.3509886e-38
-0.043796226 0.011144214 0.33568582 2.3509886e-38
-0.043607794 0.011144214 0.33571273 2.3509886e-38
-0.043405909 0.011144214 0.33567235 2.3509886e-38
-0.043204021 0.011144214 0.33561853 2.3509886e-38
-0.043015588 0.011144214 0.33567235 2.3509886e-38
-0.04280024 0.011144214 0.33555123 2.3509886e-38
-0.042625275 0.011144214 0.33563197 2.3509886e-38
-0.042436846 0.011144214 0.33568582 2.3509886e-38
-0.042234957 0.011144214 0.33565888 2.3509886e-38
-0.042033069 0.011144214 0.33559158 2.3509886e-38
-0.04184464 0.011144214 0.33561853 2.3509886e-38
-0.041642752 0.011130755 0.33551085 2.3509886e-38
-0.041440863 0.011130755 0.33552432 2.3509886e-38
-0.041238979 0.011130755 0.33548394 2.3509886e-38
-0.041050546 0.011130755 0.33545703 2.3509886e-38
-0.040848661 0.011130755 0.33544353 2.3509886e-38
-0.040660232 0.011130755 0.33543006 2.3509886e-38
-0.04045834 0.011130755 0.33541662 2.3509886e-38
-0.040256456 0.011130755 0.3352955 2.3509886e-38
-0.040054567 0.011130755 0.33530894 2.3509886e-38
-0.039866142 0.011130755 0.33530894 2.3509886e-38
-0.039677709 0.011130755 0.33534932 2.3509886e-38
-0.039475821 0.011130755 0.3352955 2.3509886e-38
-0.039287392 0.011130755 0.33532241 2.3509886e-38
-0.039098963 0.011130755 0.33536279 2.3509886e-38
-0.038897078 0.011130755 0.33526856 2.3509886e-38
-0.03869519 0.011130755 0.33528203 2.3509886e-38
-0.038520221 0.011130755 0.33536279 2.3509886e-38
-0.038304873 0.011130755 0.33520129 2.3509886e-38
-0.03811644 0.011130755 0.33530894 2.3509886e-38
-0.037914556 0.011130755 0.33514744 2.3509886e-38
-0.037712667 0.011130755 0.33514744 2.3509886e-38
-0.037510779 0.011117295 0.33503979 2.3509886e-38
-0.037308894 0.011117295 0.33503979 2.3509886e-38
-0.037107006 0.011117295 0.33491862 2.3509886e-38
-0.036918573 0.011117295 0.33490518 2.3509886e-38
-0.036716688 0.011117295 0.33491862 2.3509886e-38
-0.036528256 0.011117295 0.33490518 2.3509886e-38
-0.036178321 0.011130755 0.33534932 2.3509886e-38
-0.035989888 0.011130755 0.33530894 2.3509886e-38
-0.035532277 0.011103837 0.33464947 2.3509886e-38
-0.035343848 0.011103837 0.33466291 2.3509886e-38
-0.035141964 0.011103837 0.33460909 2.3509886e-38
-0.034940071 0.011103837 0.33459562 2.3509886e-38
-0.034751646 0.011103837 0.334636 2.3509886e-38
-0.034549758 0.011103837 0.3345283 2.3509886e-38
-0.034361325 0.011103837 0.3345283 2.3509886e-38
-0.034159441 0.011103837 0.33447447 2.3509886e-38
-0.033957552 0.011103837 0.33439371 2.3509886e-38
-0.033769123 0.011103837 0.33442065 2.3509886e-38
-0.033553779 0.011090377 0.3342995 2.3509886e-38
-0.032450121 0.011117295 0.33483788 2.3509886e-38
-0.032207858 0.011103837 0.33438027 2.3509886e-38
-0.032019425 0.011103837 0.33433989 2.3509886e-38
-0.031817541 0.011103837 0.33432645 2.3509886e-38
-0.031629112 0.011103837 0.33439371 2.3509886e-38
-0.031440683 0.011090377 0.33431298 2.3509886e-38
-0.031252254 0.011103837 0.33440718 2.3509886e-38
-0.031063825 0.011103837 0.33451486 2.3509886e-38
-0.030861937 0.011103837 0.334461 2.3509886e-38
-0.030660048 0.011103837 0.33432645 2.3509886e-38
-0.030471619 0.011103837 0.33432645 2.3509886e-38
-0.030269731 0.011090377 0.33431298 2.3509886e-38
-0.030067844 0.011090377 0.33419186 2.3509886e-38
-0.029879415 0.011090377 0.33419186 2.3509886e-38
-0.029677527 0.011090377 0.33416495 2.3509886e-38
-0.029489098 0.011090377 0.33413798 2.3509886e-38
-0.029314129 0.011103837 0.33444756 2.3509886e-38
-0.0291257 0.011103837 0.33439371 2.3509886e-38
-0.028937271 0.011103837 0.33444756 2.3509886e-38
-0.028735384 0.011103837 0.33444756 2.3509886e-38
-0.028546955 0.011103837 0.33447447 2.3509886e-38
-0.028358527 0.011103837 0.33447447 2.3509886e-38
-0.028156638 0.011103837 0.334461 2.3509886e-38
-0.027968209 0.011103837 0.33440718 2.3509886e-38
-0.027766321 0.011103837 0.33435336 2.3509886e-38
-0.027564434 0.011103837 0.33433989 2.3509886e-38
-0.027376005 0.011090377 0.3342995 2.3509886e-38
-0.027174117 0.011090377 0.33425915 2.3509886e-38
-0.026985688 0.011090377 0.33424568 2.3509886e-38
-0.0267838 0.011090377 0.33417839 2.3509886e-38
-0.026595371 0.011090377 0.33415148 2.3509886e-38
-0.026393484 0.011090377 0.33413798 2.3509886e-38
-0.026205055 0.011090377 0.33412454 2.3509886e-38
-0.026003167 0.011090377 0.33409762 2.3509886e-38
-0.025814738 0.011090377 0.33409762 2.3509886e-38
-0.02561285 0.011090377 0.33407068 2.3509886e-38
-0.025424421 0.011090377 0.33407068 2.3509886e-38
-0.025235992 0.011090377 0.33407068 2.3509886e-38
-0.025034105 0.011090377 0.33408415 2.3509886e-38
-0.024845676 0.011090377 0.33408415 2.3509886e-38
-0.024657248 0.011090377 0.33408415 2.3509886e-38
-0.024455359 0.011090377 0.33408415 2.3509886e-38
-0.02426693 0.011090377 0.33403033 2.3509886e-38
-0.024065042 0.011090377 0.33397648 2.3509886e-38
-0.023876613 0.011090377 0.33396304 2.3509886e-38
-0.023674726 0.011076918 0.33392265 2.3509886e-38
-0.023472838 0.011076918 0.33386883 2.3509886e-38
-0.023284409 0.011076918 0.33384189 2.3509886e-38
-0.023082521 0.011076918 0.33380154 2.3509886e-38
-0.022894092 0.011076918 0.33374768 2.3509886e-38
-0.022705663 0.011076918 0.33376116 2.3509886e-38
-0.022503776 0.011076918 0.33374768 2.3509886e-38
-0.022301888 0.011076918 0.33353233 2.3509886e-38
-0.0221 0.011063459 0.33351886 2.3509886e-38
-0.021911571 0.011063459 0.33346504 2.3509886e-38
-0.021709684 0.011063459 0.33346504 2.3509886e-38
-0.021521255 0.011063459 0.33342466 2.3509886e-38
-0.021332826 0.011063459 0.33343813 2.3509886e-38
-0.021157857 0.011076918 0.33373424 2.3509886e-38
-0.020955969 0.011076918 0.33373424 2.3509886e-38
-0.02076754 0.011076918 0.33373424 2.3509886e-38
-0.020579111 0.011076918 0.33372077 2.3509886e-38
-0.020377222 0.011076918 0.3337073 2.3509886e-38
-0.020188794 0.011076918 0.33366692 2.3509886e-38
-0.019986907 0.011076918 0.33359963 2.3509886e-38
-0.019798478 0.011076918 0.3335458 2.3509886e-38
-0.01959659 0.011063459 0.33346504 2.3509886e-38
-0.019408161 0.011063459 0.33346504 2.3509886e-38
-0.019206272 0.011063459 0.33346504 2.3509886e-38
-0.018990926 0.01105 0.33307472 2.3509886e-38
-0.018802498 0.01105 0.33308819 2.3509886e-38
-0.018614069 0.01105 0.33310163 2.3509886e-38
-0.01841218 0.01105 0.33306128 2.3509886e-38
-0.018223751 0.01105 0.33303434 2.3509886e-38
-0.018035322 0.01105 0.33303434 2.3509886e-38
-0.017860353 0.011063459 0.33334392 2.3509886e-38
-0.017658465 0.011063459 0.33335736 2.3509886e-38
-0.017470036 0.011063459 0.33335736 2.3509886e-38
-0.017281607 0.011063459 0.33337083 2.3509886e-38
-0.01707972 0.011063459 0.33335736 2.3509886e-38
-0.016891291 0.011063459 0.33334392 2.3509886e-38
-0.016702862 0.011063459 0.33335736 2.3509886e-38
-0.016500974 0.011063459 0.33335736 2.3509886e-38
-0.016312545 0.011063459 0.33334392 2.3509886e-38
-0.016124118 0.011063459 0.3332901 2.3509886e-38
-0.015922228 0.011063459 0.33324969 2.3509886e-38
-0.015733799 0.011063459 0.33326313 2.3509886e-38
-0.015545372 0.011063459 0.33324969 2.3509886e-38
-0.015343484 0.011063459 0.33330354 2.3509886e-38
-0.015155055 0.011063459 0.33324969 2.3509886e-38
-0.014966626 0.011063459 0.33323622 2.3509886e-38
-0.014751279 0.01105 0.33281898 2.3509886e-38
-0.01456285 0.01105 0.33281898 2.3509886e-38
-0.014387881 0.011063459 0.33327663 2.3509886e-38
-0.014185993 0.011063459 0.33330354 2.3509886e-38
-0.013997564 0.011063459 0.33330354 2.341769e-38
-0.013809135 0.011063459 0.33334392 2.3509886e-38
-0.013620706 0.011063459 0.33339775 2.3509886e-38
-0.046380389 0.011346103 0.33608958 2.3509886e-38
-0.046165042 0.011346103 0.33600885 2.3509886e-38
-0.045963157 0.011346103 0.33594155 2.3509886e-38
-0.045761269 0.011346103 0.33590117 2.3509886e-38
-0.045572836 0.011346103 0.33591464 2.3509886e-38
-0.045384411 0.011346103 0.33592808 2.3509886e-38
-0.045182519 0.011346103 0.33595499 2.3509886e-38
-0.044994093 0.011346103 0.33591464 2.3509886e-38
-0.044792205 0.011346103 0.33586076 2.3509886e-38
-0.044590317 0.011346103 0.33583385 2.3509886e-38
-0.044401888 0.011346103 0.33588767 2.3509886e-38
-0.044199999 0.011346103 0.33580694 2.3509886e-38
-0.043998111 0.011346103 0.33580694 2.3509886e-38
-0.043796226 0.011332643 0.33569926 2.3509886e-38
-0.043607794 0.011332643 0.33576655 2.3509886e-38
-0.043419369 0.011346103 0.33578002 2.3509886e-38
-0.042450305 0.011332643 0.33576655 2.3509886e-38
-0.042248417 0.011332643 0.33573964 2.3509886e-38
-0.042033069 0.011332643 0.33559158 2.3509886e-38
-0.04184464 0.011332643 0.33565888 2.3509886e-38
-0.041656211 0.011332643 0.33561853 2.3509886e-38
-0.041454326 0.011332643 0.33565888 2.3509886e-38
-0.041265894 0.011332643 0.33560506 2.3509886e-38
-0.041064009 0.011332643 0.33559158 2.3509886e-38
-0.040848661 0.011332643 0.33543006 2.3509886e-38
-0.040660232 0.011332643 0.33547047 2.3509886e-38
-0.039677709 0.011332643 0.33540314 2.3509886e-38
-0.039489284 0.011332643 0.33541662 2.3509886e-38
-0.039287392 0.011319184 0.3352955 2.3509886e-38
-0.039098963 0.011332643 0.33537623 2.3509886e-38
-0.038897078 0.011319184 0.33534932 2.3509886e-38
-0.038708646 0.011332643 0.3353897 2.3509886e-38
-0.038506761 0.011319184 0.33532241 2.3509886e-38
-0.038318332 0.011319184 0.33536279 2.3509886e-38
-0.03811644 0.011319184 0.33533585 2.3509886e-38
-0.037914556 0.011319184 0.33520129 2.3509886e-38
-0.037726127 0.011319184 0.33521473 2.3509886e-38
-0.037524242 0.011319184 0.335134 2.3509886e-38
-0.03732235 0.011319184 0.335134 2.3509886e-38
-0.037120461 0.011319184 0.33506671 2.3509886e-38
-0.036932036 0.011319184 0.33506671 2.3509886e-38
-0.036730148 0.011319184 0.33501282 2.3509886e-38
-0.036380205 0.011319184 0.33537623 2.3509886e-38
-0.036191776 0.011332643 0.3353897 2.3509886e-38
-0.035989888 0.011332643 0.33537623 2.3509886e-38
-0.035545737 0.011305724 0.33482441 2.3509886e-38
-0.035343848 0.011305724 0.33471674 2.3509886e-38
-0.035155419 0.011305724 0.33473021 2.3509886e-38
-0.03401139 0.011319184 0.33498591 2.3509886e-38
-0.033822961 0.011305724 0.33497247 2.3509886e-38
-0.032463584 0.011305724 0.33491862 2.3509886e-38
-0.032261692 0.011305724 0.33489171 2.3509886e-38
-0.032032888 0.011292266 0.3345283 2.3509886e-38
-0.031871375 0.011305724 0.33483788 2.3509886e-38
-0.03166949 0.011305724 0.33474368 2.3509886e-38
-0.031467598 0.011305724 0.33473021 2.3509886e-38
-0.031279173 0.011305724 0.33471674 2.3509886e-38
-0.031077283 0.011305724 0.33466291 2.3509886e-38
-0.030875396 0.011292266 0.33454177 2.3509886e-38
-0.030673508 0.011292266 0.33448794 2.3509886e-38
-0.030485079 0.011292266 0.3345283 2.3509886e-38
-0.03029665 0.011292266 0.33455521 2.3509886e-38
-0.030094761 0.011292266 0.33451486 2.3509886e-38
-0.029906334 0.011292266 0.33448794 2.3509886e-38
-0.029690986 0.011292266 0.33423221 2.3509886e-38
-0.029502558 0.011292266 0.33425915 2.3509886e-38
-0.029327588 0.011292266 0.33451486 2.3509886e-38
-0.0291257 0.011292266 0.33450139 2.3509886e-38
-0.028937271 0.011292266 0.33455521 2.3509886e-38
-0.028748844 0.011292266 0.33451486 2.3509886e-38
-0.028560415 0.011292266 0.33454177 2.3509886e-38
-0.028358527 0.011292266 0.33455521 2.3509886e-38
-0.028170098 0.011292266 0.3345283 2.3509886e-38
-0.027968209 0.011292266 0.33447447 2.3509886e-38
-0.02777978 0.011292266 0.334461 2.3509886e-38
-0.027577892 0.011292266 0.33440718 2.3509886e-38
-0.027376005 0.011292266 0.33438027 2.3509886e-38
-0.027187577 0.011292266 0.33435336 2.3509886e-38
-0.026985688 0.011292266 0.33431298 2.3509886e-38
-0.026797259 0.011292266 0.33427259 2.3509886e-38
-0.026595371 0.011292266 0.33423221 2.3509886e-38
-0.026406942 0.011292266 0.33424568 2.3509886e-38
-0.026205055 0.011292266 0.33421877 2.3509886e-38
-0.026016627 0.011292266 0.3342053 2.3509886e-38
-0.025814738 0.011292266 0.33419186 2.3509886e-38
-0.025626309 0.011278806 0.33419186 2.3509886e-38
-0.02543788 0.011278806 0.33419186 2.3509886e-38
-0.025235992 0.011278806 0.33419186 2.3509886e-38
-0.025047565 0.011292266 0.33421877 2.3509886e-38
-0.024859136 0.011278806 0.33419186 2.3509886e-38
-0.024657248 0.011278806 0.33419186 2.3509886e-38
-0.024468819 0.011292266 0.33419186 2.3509886e-38
-0.02426693 0.011278806 0.33415148 2.3509886e-38
-0.024078501 0.011278806 0.33409762 2.3509886e-38
-0.023876613 0.011278806 0.33405724 2.3509886e-38
-0.023688186 0.011278806 0.33403033 2.3509886e-38
-0.023486298 0.011278806 0.33398995 2.3509886e-38
-0.023297869 0.011278806 0.33394957 2.3509886e-38
-0.02309598 0.011278806 0.33392265 2.3509886e-38
-0.022907551 0.011278806 0.33388227 2.3509886e-38
-0.022705663 0.011278806 0.33386883 2.3509886e-38
-0.022517236 0.011278806 0.33386883 2.3509886e-38
-0.022301888 0.011265347 0.33355924 2.3509886e-38
-0.022113459 0.011265347 0.33359963 2.3509886e-38
-0.021911571 0.011265347 0.33353233 2.3509886e-38
-0.021723142 0.011265347 0.33351886 2.3509886e-38
-0.021534713 0.011265347 0.33365345 2.3509886e-38
-0.021359744 0.011278806 0.33385536 2.3509886e-38
-0.021157857 0.011278806 0.33386883 2.3509886e-38
-0.020969428 0.011278806 0.33385536 2.3509886e-38
-0.020780999 0.011278806 0.33385536 2.3509886e-38
-0.020579111 0.011278806 0.33385536 2.3509886e-38
-0.020390682 0.011278806 0.33381498 2.3509886e-38
-0.020188794 0.011265347 0.33377463 2.3509886e-38
-0.020000365 0.011265347 0.33374768 2.3509886e-38
-0.019798478 0.011265347 0.33368036 2.3509886e-38
-0.019610049 0.011265347 0.33364001 2.3509886e-38
-0.019408161 0.011265347 0.33359963 2.3509886e-38
-0.019219732 0.011265347 0.33359963 2.3509886e-38
-0.019017844 0.011265347 0.33358616 2.3509886e-38
-0.018815955 0.011251888 0.33324969 2.3509886e-38
-0.018614069 0.011251888 0.33316892 2.3509886e-38
-0.01842564 0.011251888 0.33314201 2.3509886e-38
-0.018223751 0.011238429 0.3330209 2.3509886e-38
-0.018048782 0.011265347 0.33349195 2.3509886e-38
-0.017860353 0.011265347 0.33349195 2.3509886e-38
-0.017671924 0.011265347 0.33349195 2.3509886e-38
-0.017483497 0.011265347 0.33350542 2.3509886e-38
-0.017281607 0.011265347 0.33350542 2.3509886e-38
-0.017093178 0.011265347 0.33349195 2.3509886e-38
-0.016904749 0.011265347 0.33347851 2.3509886e-38
-0.016702862 0.011265347 0.33349195 2.3509886e-38
-0.016514434 0.011265347 0.33349195 2.3509886e-38
-0.016312545 0.011265347 0.3334516 2.3509886e-38
-0.016124118 0.011265347 0.33346504 2.3509886e-38
-0.015935687 0.011251888 0.33339775 2.3509886e-38
-0.015733799 0.011251888 0.33341122 2.3509886e-38
-0.015545372 0.011251888 0.33338431 2.3509886e-38
-0.015356943 0.011251888 0.33341122 2.3509886e-38
-0.015155055 0.011251888 0.33341122 2.3509886e-38
-0.014966626 0.011251888 0.33337083 2.3509886e-38
-0.014778197 0.011251888 0.33335736 2.3509886e-38
-0.014576309 0.011251888 0.33338431 2.3509886e-38
-0.014387881 0.011251888 0.33341122 2.3509886e-38
-0.014199452 0.011251888 0.33343813 2.3509886e-38
-0.014011024 0.011265347 0.33346504 2.341769e-38
-0.013809135 0.011265347 0.33349195 2.3509886e-38
-0.013620706 0.011265347 0.33351886 2.3509886e-38
-0.046380389 0.01154799 0.33611649 2.3509886e-38
-0.046178505 0.01154799 0.33612996 2.3509886e-38
-0.045963157 0.011534532 0.33598191 2.3509886e-38
-0.045761269 0.011534532 0.33590117 2.3509886e-38
-0.045572836 0.011534532 0.33595499 2.3509886e-38
-0.045397867 0.01154799 0.33603576 2.3509886e-38
-0.045195978 0.01154799 0.33602229 2.3509886e-38
-0.044994093 0.011534532 0.33598191 2.3509886e-38
-0.044805661 0.011534532 0.33594155 2.3509886e-38
-0.044603776 0.011534532 0.33590117 2.3509886e-38
-0.044401888 0.011534532 0.33590117 2.3509886e-38
-0.044213459 0.011534532 0.33591464 2.3509886e-38
-0.044011571 0.011534532 0.33590117 2.3509886e-38
-0.042261876 0.011534532 0.33584732 2.3509886e-38
-0.042046528 0.011534532 0.33567235 2.3509886e-38
-0.041858099 0.011534532 0.33576655 2.3509886e-38
-0.041656211 0.011534532 0.33569926 2.3509886e-38
-0.041467782 0.011534532 0.33572617 2.3509886e-38
-0.041279357 0.011534532 0.33575311 2.3509886e-38
-0.041064009 0.011521072 0.33560506 2.3509886e-38
-0.040875576 0.011521072 0.33559158 2.3509886e-38
-0.03950274 0.011521072 0.33551085 2.3509886e-38
-0.039300852 0.011521072 0.33540314 2.3509886e-38
-0.039098963 0.011521072 0.33540314 2.3509886e-38
-0.038897078 0.011521072 0.33536279 2.3509886e-38
-0.038722109 0.011521072 0.33549738 2.3509886e-38
-0.038129903 0.011521072 0.33540314 2.3509886e-38
-0.037928015 0.011521072 0.33536279 2.3509886e-38
-0.036393669 0.011521072 0.33544353 2.3509886e-38
-0.036191776 0.011521072 0.33544353 2.3509886e-38
-0.036003351 0.011521072 0.33545703 2.3509886e-38
-0.035814919 0.011521072 0.33544353 2.3509886e-38
-0.034024846 0.011507613 0.33506671 2.3509886e-38
-0.033822961 0.011507613 0.33503979 2.3509886e-38
-0.032463584 0.011507613 0.33501282 2.3509886e-38
-0.032275151 0.011507613 0.33498591 2.3509886e-38
-0.032073263 0.011507613 0.33498591 2.3509886e-38
-0.031884834 0.011507613 0.33491862 2.3509886e-38
-0.031682946 0.011507613 0.33485132 2.3509886e-38
-0.031481061 0.011494153 0.33482441 2.3509886e-38
-0.031292632 0.011494153 0.33481097 2.3509886e-38
-0.031090744 0.011494153 0.33473021 2.3509886e-38
-0.030888855 0.011494153 0.33468983 2.3509886e-38
-0.030700427 0.011494153 0.33471674 2.3509886e-38
-0.030498538 0.011494153 0.33462253 2.3509886e-38
-0.030310109 0.011494153 0.334636 2.3509886e-38
-0.030108221 0.011494153 0.33460909 2.3509886e-38
-0.029906334 0.011494153 0.33458215 2.3509886e-38
-0.029690986 0.011480695 0.33432645 2.3509886e-38
-0.029502558 0.011480695 0.3342995 2.3509886e-38
-0.029327588 0.011494153 0.33459562 2.3509886e-38
-0.029139159 0.011494153 0.33459562 2.3509886e-38
-0.02895073 0.011494153 0.33459562 2.3509886e-38
-0.028748844 0.011494153 0.33462253 2.3509886e-38
-0.028560415 0.011494153 0.334636 2.3509886e-38
-0.028371986 0.011494153 0.334636 2.3509886e-38
-0.028129719 0.011480695 0.33415148 2.3509886e-38
-0.027941292 0.011480695 0.33421877 2.3509886e-38
-0.027739402 0.011467235 0.33404377 2.3509886e-38
-0.027591351 0.011494153 0.33451486 2.3509886e-38
-0.027389465 0.011494153 0.334461 2.3509886e-38
-0.027187577 0.011480695 0.33442065 2.3509886e-38
-0.026999148 0.011480695 0.33440718 2.3509886e-38
-0.026797259 0.011480695 0.33435336 2.3509886e-38
-0.02660883 0.011480695 0.33433989 2.3509886e-38
-0.026406942 0.011480695 0.33433989 2.3509886e-38
-0.026218515 0.011480695 0.33432645 2.3509886e-38
-0.026016627 0.011480695 0.33431298 2.3509886e-38
-0.025828198 0.011480695 0.33431298 2.3509886e-38
-0.025639769 0.011480695 0.3342995 2.3509886e-38
-0.02543788 0.011480695 0.3342995 2.3509886e-38
-0.025249451 0.011480695 0.33428606 2.3509886e-38
-0.025061022 0.011480695 0.33433989 2.3509886e-38
-0.024859136 0.011480695 0.33431298 2.3509886e-38
-0.024670707 0.011480695 0.33432645 2.3509886e-38
-0.024482278 0.011480695 0.33433989 2.3509886e-38
-0.02428039 0.011480695 0.3342995 2.3509886e-38
-0.024078501 0.011480695 0.33424568 2.3509886e-38
-0.023890072 0.011480695 0.33419186 2.3509886e-38
-0.023688186 0.011480695 0.33416495 2.3509886e-38
-0.023499757 0.011480695 0.33412454 2.3509886e-38
-0.023297869 0.011480695 0.33407068 2.3509886e-38
-0.02310944 0.011467235 0.33404377 2.3509886e-38
-0.022907551 0.011467235 0.33401686 2.3509886e-38
-0.022719122 0.011467235 0.33398995 2.3509886e-38
-0.022517236 0.011467235 0.33396304 2.3509886e-38
-0.022315348 0.011467235 0.3337073 2.3509886e-38
-0.022113459 0.011467235 0.33373424 2.3509886e-38
-0.02192503 0.011453776 0.33366692 2.3509886e-38
-0.021736601 0.011467235 0.33372077 2.3509886e-38
-0.021534713 0.011453776 0.33355924 2.3509886e-38
-0.021359744 0.011467235 0.33397648 2.3509886e-38
-0.021171315 0.011467235 0.33397648 2.3509886e-38
-0.020982886 0.011467235 0.33397648 2.3509886e-38
-0.020780999 0.011467235 0.33397648 2.3509886e-38
-0.02059257 0.011467235 0.33396304 2.3509886e-38
-0.020390682 0.011467235 0.33394957 2.3509886e-38
-0.020202253 0.011467235 0.33390918 2.3509886e-38
-0.020000365 0.011467235 0.33384189 2.3509886e-38
-0.019811936 0.011467235 0.33381498 2.3509886e-38
-0.019610049 0.011467235 0.33376116 2.3509886e-38
-0.01942162 0.011467235 0.33373424 2.3509886e-38
-0.019219732 0.011467235 0.33373424 2.3509886e-38
-0.019031303 0.011467235 0.33372077 2.3509886e-38
-0.018842874 0.011467235 0.3337073 2.3509886e-38
-0.018627528 0.011453776 0.33333045 2.3509886e-38
-0.01842564 0.011440317 0.33327663 2.3509886e-38
-0.018237211 0.011440317 0.33323622 2.3509886e-38
-0.018062241 0.011453776 0.33362654 2.3509886e-38
-0.017873812 0.011453776 0.33362654 2.3509886e-38
-0.017671924 0.011453776 0.33364001 2.3509886e-38
-0.017483497 0.011453776 0.33364001 2.3509886e-38
-0.017295068 0.011453776 0.3336131 2.3509886e-38
-0.017093178 0.011453776 0.33362654 2.3509886e-38
-0.016904749 0.011453776 0.33362654 2.3509886e-38
-0.01671632 0.011453776 0.33362654 2.3509886e-38
-0.016514434 0.011453776 0.3336131 2.3509886e-38
-0.016326005 0.011453776 0.3336131 2.3509886e-38
-0.016137576 0.011453776 0.3336131 2.3509886e-38
-0.015935687 0.011453776 0.33358616 2.3509886e-38
-0.015747258 0.011453776 0.3335458 2.3509886e-38
-0.015558831 0.011453776 0.3335458 2.3509886e-38
-0.015356943 0.011453776 0.33353233 2.3509886e-38
-0.015168514 0.011453776 0.3335458 2.3509886e-38
-0.014980085 0.011453776 0.3335458 2.3509886e-38
-0.014778197 0.011453776 0.33351886 2.3509886e-38
-0.014589768 0.011453776 0.33351886 2.3509886e-38
-0.01440134 0.011453776 0.33355924 2.3509886e-38
-0.014199452 0.011453776 0.33355924 2.3509886e-38
-0.014011024 0.011453776 0.33359963 2.3509886e-38
-0.013822595 0.011453776 0.33364001 2.341769e-38
-0.013634166 0.011453776 0.33369383 2.3509886e-38
-0.045397867 0.011736419 0.33603576 2.3509886e-38
-0.045209441 0.011736419 0.33611649 2.3509886e-38
-0.045021009 0.011736419 0.33611649 2.3509886e-38
-0.044819124 0.011736419 0.33607614 2.3509886e-38
-0.044617236 0.011736419 0.33602229 2.3509886e-38
-0.044415347 0.011736419 0.33599538 2.3509886e-38
-0.044226918 0.011736419 0.33599538 2.3509886e-38
-0.042086903 0.011736419 0.33598191 2.3509886e-38
-0.041885018 0.011736419 0.33591464 2.3509886e-38
-0.039919976 0.011722961 0.33578002 2.3509886e-38
-0.038910534 0.011709501 0.33543006 2.3509886e-38
-0.038143363 0.011722961 0.33551085 2.3509886e-38
-0.037941474 0.011722961 0.33547047 2.3509886e-38
-0.037753046 0.011722961 0.33548394 2.3509886e-38
-0.036393669 0.011722961 0.33551085 2.3509886e-38
-0.036205236 0.011722961 0.33552432 2.3509886e-38
-0.036016811 0.011722961 0.33552432 2.3509886e-38
-0.035814919 0.011722961 0.33549738 2.3509886e-38
-0.03561303 0.011709501 0.33543006 2.3509886e-38
-0.034024846 0.011709501 0.335134 2.3509886e-38
-0.033836421 0.011709501 0.33510706 2.3509886e-38
-0.033634532 0.011709501 0.33508015 2.3509886e-38
-0.03247704 0.011709501 0.33509362 2.3509886e-38
-0.032288611 0.011709501 0.33509362 2.3509886e-38
-0.032086726 0.011709501 0.33509362 2.3509886e-38
-0.031884834 0.011696042 0.33502632 2.3509886e-38
-0.031682946 0.011696042 0.334959 2.3509886e-38
-0.031494517 0.011696042 0.33491862 2.3509886e-38
-0.031292632 0.011696042 0.33490518 2.3509886e-38
-0.031090744 0.011696042 0.33483788 2.3509886e-38
-0.030902315 0.011696042 0.33478403 2.3509886e-38
-0.030700427 0.011696042 0.33481097 2.3509886e-38
-0.030511998 0.011696042 0.33473021 2.3509886e-38
-0.030310109 0.011696042 0.33471674 2.3509886e-38
-0.030108221 0.011682582 0.33467638 2.3509886e-38
-0.029919794 0.011682582 0.33467638 2.3509886e-38
-0.029731365 0.011682582 0.33466291 2.3509886e-38
-0.029529477 0.011682582 0.33466291 2.3509886e-38
-0.029341048 0.011682582 0.33468983 2.3509886e-38
-0.029152619 0.011682582 0.33468983 2.3509886e-38
-0.02895073 0.011696042 0.3347033 2.3509886e-38
-0.028762301 0.011696042 0.33473021 2.3509886e-38
-0.028573873 0.011696042 0.33471674 2.3509886e-38
-0.028331608 0.011669124 0.33417839 2.3509886e-38
-0.028143179 0.011669124 0.33428606 2.3509886e-38
-0.027941292 0.011669124 0.3342053 2.3509886e-38
-0.027766321 0.011682582 0.33431298 2.3509886e-38
-0.027550975 0.011669124 0.33411106 2.3509886e-38
-0.027402923 0.011682582 0.33458215 2.3509886e-38
-0.027201036 0.011682582 0.3345283 2.3509886e-38
-0.027012607 0.011682582 0.3345283 2.3509886e-38
-0.026810719 0.011682582 0.33447447 2.3509886e-38
-0.02660883 0.011682582 0.33444756 2.3509886e-38
-0.026420401 0.011682582 0.33444756 2.3509886e-38
-0.026231973 0.011682582 0.33444756 2.3509886e-38
-0.026030086 0.011682582 0.33442065 2.3509886e-38
-0.025841657 0.011682582 0.33442065 2.3509886e-38
-0.025639769 0.011682582 0.33442065 2.3509886e-38
-0.02545134 0.011682582 0.33442065 2.3509886e-38
-0.025262911 0.011682582 0.33443409 2.3509886e-38
-0.025061022 0.011682582 0.33443409 2.3509886e-38
-0.024872594 0.011682582 0.33443409 2.3509886e-38
-0.024684165 0.011682582 0.33444756 2.3509886e-38
-0.024482278 0.011682582 0.33443409 2.3509886e-38
-0.024293849 0.011682582 0.33439371 2.3509886e-38
-0.024091961 0.011682582 0.33439371 2.3509886e-38
-0.023903532 0.011682582 0.33432645 2.3509886e-38
-0.023701644 0.011669124 0.33428606 2.3509886e-38
-0.023499757 0.011669124 0.33424568 2.3509886e-38
-0.023311328 0.011669124 0.3342053 2.3509886e-38
-0.02310944 0.011669124 0.33417839 2.3509886e-38
-0.022921011 0.011669124 0.33413798 2.3509886e-38
-0.022719122 0.011669124 0.33412454 2.3509886e-38
-0.022530694 0.011669124 0.33411106 2.3509886e-38
-0.022342265 0.011669124 0.33409762 2.3509886e-38
-0.022126919 0.011655664 0.33389574 2.3509886e-38
-0.02192503 0.011655664 0.33378807 2.3509886e-38
-0.021736601 0.011655664 0.33378807 2.3509886e-38
-0.021548172 0.011655664 0.33378807 2.3509886e-38
-0.021373203 0.011669124 0.33409762 2.3509886e-38
-0.021184776 0.011669124 0.33409762 2.3509886e-38
-0.020982886 0.011669124 0.33411106 2.3509886e-38
-0.020794457 0.011669124 0.33409762 2.3509886e-38
-0.02059257 0.011669124 0.33409762 2.3509886e-38
-0.020404141 0.011669124 0.33408415 2.3509886e-38
-0.020215712 0.011669124 0.33404377 2.3509886e-38
-0.020013826 0.011669124 0.33398995 2.3509886e-38
-0.019811936 0.011669124 0.33394957 2.3509886e-38
-0.019623507 0.011655664 0.33389574 2.3509886e-38
-0.01942162 0.011655664 0.33389574 2.3509886e-38
-0.019233191 0.011655664 0.33388227 2.3509886e-38
-0.019044762 0.011655664 0.33385536 2.3509886e-38
-0.018842874 0.011655664 0.33381498 2.3509886e-38
-0.018654447 0.011655664 0.33381498 2.3509886e-38
-0.018439099 0.011642205 0.33338431 2.3509886e-38
-0.018237211 0.011642205 0.33327663 2.3509886e-38
-0.018075699 0.011655664 0.33378807 2.3509886e-38
-0.017873812 0.011655664 0.33378807 2.3509886e-38
-0.017685384 0.011655664 0.33378807 2.3509886e-38
-0.017496955 0.011655664 0.33377463 2.3509886e-38
-0.017295068 0.011655664 0.33377463 2.3509886e-38
-0.017106639 0.011655664 0.33378807 2.3509886e-38
-0.01691821 0.011655664 0.33376116 2.3509886e-38
-0.01671632 0.011655664 0.33376116 2.3509886e-38
-0.016527891 0.011655664 0.33374768 2.3509886e-38
-0.016339462 0.011655664 0.33377463 2.3509886e-38
-0.016137576 0.011655664 0.33376116 2.3509886e-38
-0.015949147 0.011655664 0.33372077 2.3509886e-38
-0.015747258 0.011655664 0.33372077 2.3509886e-38
-0.015558831 0.011655664 0.33369383 2.341769e-38
-0.015370402 0.011655664 0.33372077 2.3509886e-38
-0.015168514 0.011655664 0.33372077 2.3509886e-38
-0.014980085 0.011655664 0.33369383 2.3509886e-38
-0.014791656 0.011655664 0.33366692 2.3509886e-38
-0.014589768 0.011655664 0.33365345 2.3509886e-38
-0.01440134 0.011655664 0.33369383 2.3509886e-38
-0.014212911 0.011655664 0.33372077 2.3509886e-38
-0.014024482 0.011655664 0.33373424 2.3509886e-38
-0.013822595 0.011655664 0.33377463 2.3325494e-38
-0.013634166 0.011655664 0.33384189 2.3509886e-38
-0.045411326 0.011938307 0.33617035 2.3509886e-38
-0.045195978 0.011924847 0.3360492 2.3509886e-38
-0.045021009 0.011938307 0.3361434 2.3509886e-38
-0.044819124 0.011938307 0.33608958 2.3509886e-38
-0.044603776 0.011924847 0.33596846 2.3509886e-38
-0.044428803 0.011938307 0.33610305 2.3509886e-38
-0.042086903 0.011924847 0.33602229 2.3509886e-38
-0.041885018 0.011924847 0.33596846 2.3509886e-38
-0.04013532 0.011924847 0.33594155 2.3509886e-38
-0.039933436 0.011924847 0.33583385 2.3509886e-38
-0.039731547 0.011924847 0.33579347 2.3509886e-38
-0.038345251 0.011911388 0.33557814 2.3509886e-38
-0.038156819 0.011911388 0.33557814 2.3509886e-38
-0.03795493 0.011911388 0.33559158 2.3509886e-38
-0.037766505 0.011911388 0.33556467 2.3509886e-38
-0.037564617 0.011911388 0.33555123 2.3509886e-38
-0.036595553 0.011911388 0.33553776 2.3509886e-38
-0.036407124 0.011911388 0.33560506 2.3509886e-38
-0.036218699 0.011911388 0.33563197 2.3509886e-38
-0.036016811 0.011911388 0.33563197 2.3509886e-38
-0.035828378 0.011911388 0.33559158 2.3509886e-38
-0.035626493 0.011911388 0.33551085 2.3509886e-38
-0.034240194 0.01189793 0.33525512 2.3509886e-38
-0.034038305 0.01189793 0.3352282 2.3509886e-38
-0.033836421 0.01189793 0.33518782 2.3509886e-38
-0.033647988 0.01189793 0.33516091 2.3509886e-38
-0.033446103 0.01189793 0.33516091 2.3509886e-38
-0.032678925 0.01189793 0.33518782 2.3509886e-38
-0.032490499 0.01189793 0.33517435 2.3509886e-38
-0.032288611 0.01189793 0.33517435 2.3509886e-38
-0.032100182 0.01189793 0.33517435 2.3509886e-38
-0.031898294 0.01189793 0.33512053 2.3509886e-38
-0.031696405 0.01189793 0.33508015 2.3509886e-38
-0.031494517 0.01189793 0.33502632 2.3509886e-38
-0.031306092 0.01189793 0.33497247 2.3509886e-38
-0.031104201 0.01189793 0.33494553 2.3509886e-38
-0.030902315 0.01188447 0.3348648 2.3509886e-38
-0.030713886 0.01188447 0.33489171 2.3509886e-38
-0.030511998 0.01188447 0.33481097 2.3509886e-38
-0.030323569 0.01188447 0.33481097 2.3509886e-38
-0.03012168 0.01188447 0.3347975 2.3509886e-38
-0.029933251 0.01188447 0.33475712 2.3509886e-38
-0.029731365 0.01188447 0.33475712 2.3509886e-38
-0.029542936 0.01188447 0.33477059 2.3509886e-38
-0.029354507 0.01188447 0.33478403 2.3509886e-38
-0.029152619 0.01188447 0.33477059 2.3509886e-38
-0.02896419 0.01188447 0.33481097 2.3509886e-38
-0.028775763 0.01188447 0.33482441 2.3509886e-38
-0.028573873 0.01188447 0.33482441 2.3509886e-38
-0.028345067 0.011871011 0.33439371 2.3509886e-38
-0.028156638 0.011871011 0.33438027 2.3509886e-38
-0.02795475 0.011871011 0.3343668 2.3509886e-38
-0.027766321 0.011871011 0.33428606 2.3509886e-38
-0.027604811 0.01188447 0.33471674 2.3509886e-38
-0.027402923 0.01188447 0.33467638 2.3509886e-38
-0.027214494 0.01188447 0.33466291 2.3509886e-38
-0.027012607 0.01188447 0.334636 2.3509886e-38
-0.026824178 0.01188447 0.33459562 2.3509886e-38
-0.02662229 0.01188447 0.33456868 2.3509886e-38
-0.026393484 0.011857552 0.33416495 2.3509886e-38
-0.026205055 0.011857552 0.33411106 2.3509886e-38
-0.026043544 0.011871011 0.3345283 2.3509886e-38
-0.025841657 0.011871011 0.3345283 2.3509886e-38
-0.025653228 0.011871011 0.3345283 2.3509886e-38
-0.025464799 0.011871011 0.33451486 2.3509886e-38
-0.025262911 0.011871011 0.33454177 2.3509886e-38
-0.025074482 0.01188447 0.33455521 2.3509886e-38
-0.024886055 0.011871011 0.33454177 2.3509886e-38
-0.024684165 0.01188447 0.33456868 2.3509886e-38
-0.024495736 0.011871011 0.33455521 2.3509886e-38
-0.024293849 0.011871011 0.33454177 2.3509886e-38
-0.02410542 0.011871011 0.33450139 2.3509886e-38
-0.023903532 0.011871011 0.334461 2.3509886e-38
-0.023715105 0.011871011 0.33440718 2.3509886e-38
-0.023513215 0.011871011 0.3343668 2.3509886e-38
-0.023324786 0.011871011 0.33435336 2.3509886e-38
-0.023122899 0.011871011 0.33432645 2.3509886e-38
-0.02293447 0.011871011 0.33428606 2.3509886e-38
-0.022732582 0.011871011 0.33425915 2.3509886e-38
-0.022544155 0.011871011 0.33424568 2.3509886e-38
-0.022342265 0.011871011 0.33423221 2.3509886e-38
-0.022153836 0.011871011 0.33423221 2.3509886e-38
-0.02193849 0.011857552 0.33390918 2.3509886e-38
-0.021736601 0.011857552 0.33382845 2.3509886e-38
-0.021575091 0.011871011 0.33421877 2.3509886e-38
-0.021373203 0.011871011 0.3342053 2.3509886e-38
-0.021184776 0.011871011 0.33423221 2.3509886e-38
-0.020996347 0.011871011 0.33421877 2.3509886e-38
-0.020794457 0.011871011 0.33421877 2.3509886e-38
-0.020606028 0.011871011 0.3342053 2.3509886e-38
-0.020417599 0.011871011 0.3342053 2.3509886e-38
-0.020215712 0.011857552 0.33417839 2.3509886e-38
-0.020027284 0.011857552 0.33412454 2.3509886e-38
-0.019825397 0.011857552 0.33408415 2.3509886e-38
-0.019623507 0.011857552 0.33404377 2.3509886e-38
-0.019435078 0.011857552 0.33404377 2.3509886e-38
-0.019246649 0.011857552 0.33400339 2.3509886e-38
-0.019044762 0.011857552 0.33398995 2.3509886e-38
-0.018856334 0.011857552 0.33397648 2.3509886e-38
-0.018654447 0.011857552 0.33394957 2.3509886e-38
-0.018439099 0.011844093 0.33349195 2.3509886e-38
-0.01825067 0.011830634 0.33342466 2.3509886e-38
-0.018075699 0.011857552 0.33392265 2.3509886e-38
-0.01788727 0.011857552 0.33393613 2.3509886e-38
-0.017698841 0.011857552 0.33392265 2.3509886e-38
-0.017496955 0.011857552 0.33393613 2.3509886e-38
-0.017308526 0.011857552 0.33394957 2.3509886e-38
-0.017120097 0.011857552 0.33394957 2.3509886e-38
-0.01691821 0.011857552 0.33390918 2.3509886e-38
-0.016729781 0.011857552 0.33392265 2.3509886e-38
-0.016527891 0.011857552 0.33390918 2.3509886e-38
-0.016339462 0.011857552 0.33390918 2.3509886e-38
-0.016151035 0.011857552 0.33389574 2.3509886e-38
-0.015949147 0.011857552 0.33389574 2.3509886e-38
-0.015760718 0.011857552 0.33388227 2.3509886e-38
